-2.4843258416389546, 2.0883447457019444, -.00073866466615825279
-2.4843258416389546, 2.4324368270097581, .00033188739716471187
-2.4843258416389546, 2.9630365798386675, -.00008464364404382516
-2.4843258416389546, 3.2890824243987664, .00002995467910258141
-2.4843258416389546, 3.8869245750597696, -3.828805509186859e-06
-2.4843258416389546, 4.1962077112690155, 1.078303352199018e-06
-2.4843258416389546, 4.8969363973455646, -5.085575028400159e-08
-2.4843258416389546, 5.1900935913047821, 1.141997126715401e-08
-2.4843258416389546, 6.0874095469012914, -9.303825576818960e-11
-2.4843258416389546, 6.3639478888298378, 1.641617855302733e-11
-2.4586636111723679, -2.8569700138728056, .00015757941384058819
-2.4586636111723679, -2.3344142183389773, -.00064216275779023827
-2.4586636111723679, -1.3556261799742659, .0031085826571496554
-2.4586636111723679, -.74196378430272591, -.0063567559657602838
-2.4586636111723679, 0, .0074655133051205582
-2.4586636111723679, .74196378430272591, -.0063567559657602838
-2.4586636111723679, 1.3556261799742659, .0031085826571496554
-2.4586636111723679, 2.3344142183389773, -.00064216275779023827
-2.4586636111723679, 2.8569700138728056, .00015757941384058819
-2.4324368270097581, -4.8594628283323127, 7.485782149899396e-08
-2.4324368270097581, -4.5127458633997826, -3.880528878750115e-07
-2.4324368270097581, -3.5818234835519269, .00001316448889431008
-2.4324368270097581, -3.2054290028564703, -.00004843559921121364
-2.4324368270097581, -2.4843258416389546, .00033188739716471187
-2.4324368270097581, -2.0768479786778302, -.00086683706334258787
-2.4324368270097581, -1.4659890943911582, .0023527794333150754
-2.4324368270097581, -1.0232556637891326, -.0042389421893674218
-2.4324368270097581, -.48493570751549764, .0059849810688732121
-2.4324368270097581, 0, -.0070565686825194221
-2.4324368270097581, .48493570751549764, .0059849810688732121
-2.4324368270097581, 1.0232556637891326, -.0042389421893674218
-2.4324368270097581, 1.4659890943911582, .0023527794333150754
-2.4324368270097581, 2.0768479786778302, -.00086683706334258787
-2.4324368270097581, 2.4843258416389546, .00033188739716471187
-2.4324368270097581, 3.2054290028564703, -.00004843559921121364
-2.4324368270097581, 3.5818234835519269, .00001316448889431008
-2.4324368270097581, 4.5127458633997826, -3.880528878750115e-07
-2.4324368270097581, 4.8594628283323127, 7.485782149899396e-08
-2.3667594107345415, -7.1394648491464796, 1.358415682930161e-13
-2.3667594107345415, -6.889122439895333, -7.948609434649756e-13
-2.3667594107345415, -6.0077459113595975, 1.816358412327295e-10
-2.3667594107345415, -5.7444600786594071, -8.636649984217177e-10
-2.3667594107345415, -5.0540726854427405, 3.142001373350586e-08
-2.3667594107345415, -4.778531589629984, -1.234184792237035e-07
-2.3667594107345415, -4.1880202316294044, 1.593187078438051e-06
-2.3667594107345415, -3.9000657171980104, -5.182311847700662e-06
-2.3667594107345415, -3.3747365357780907, .00003277124796512091
-2.3667594107345415, -3.0737971753281941, -.00008793295845433224
-2.3667594107345415, -2.5958336889112403, .00032345784020378424
-2.3667594107345415, -2.2810194402529889, -.00071007917213694962
-2.3667594107345415, -1.8397799215086457, .0016884625305972434
-2.3667594107345415, -1.5098833077967408, -.0029959398330844625
-2.3667594107345415, -1.0983955180915013, .0049422178116220773
-2.3667594107345415, -.7518426007038963, -.0069728340338142836
-2.3667594107345415, -.36524575550769767, .0083900277645411695
-2.3667594107345415, 0, -.0092129387830328768
-2.3667594107345415, .36524575550769767, .0083900277645411695
-2.3667594107345415, .7518426007038963, -.0069728340338142836
-2.3667594107345415, 1.0983955180915013, .0049422178116220773
-2.3667594107345415, 1.5098833077967408, -.0029959398330844625
-2.3667594107345415, 1.8397799215086457, .0016884625305972434
-2.3667594107345415, 2.2810194402529889, -.00071007917213694962
-2.3667594107345415, 2.5958336889112403, .00032345784020378424
-2.3667594107345415, 3.0737971753281941, -.00008793295845433224
-2.3667594107345415, 3.3747365357780907, .00003277124796512091
-2.3667594107345415, 3.9000657171980104, -5.182311847700662e-06
-2.3667594107345415, 4.1880202316294044, 1.593187078438051e-06
-2.3667594107345415, 4.778531589629984, -1.234184792237035e-07
-2.3667594107345415, 5.0540726854427405, 3.142001373350586e-08
-2.3667594107345415, 5.7444600786594071, -8.636649984217177e-10
-2.3667594107345415, 6.0077459113595975, 1.816358412327295e-10
-2.3667594107345415, 6.889122439895333, -7.948609434649756e-13
-2.3667594107345415, 7.1394648491464796, 1.358415682930161e-13
-2.341759996287708, -1.7320508075688772, .0029281788134676305
-2.341759996287708, -1.0000000000000002, -.0087845364404028885
-2.341759996287708, 0, .011712715253870517
-2.341759996287708, 1.0000000000000002, -.0087845364404028885
-2.341759996287708, 1.7320508075688772, .0029281788134676305
-2.3344142183389773, -7.8493828951138225, 9.629301634824545e-16
-2.3344142183389773, -7.6190485416797591, -5.770268097594140e-15
-2.3344142183389773, -6.7514447187174609, 2.282492875002970e-12
-2.3344142183389773, -6.5105901570136551, -1.138667324588604e-11
-2.3344142183389773, -5.8293820073044706, 6.655032640506397e-10
-2.3344142183389773, -5.5787388058932015, -2.811038532597326e-09
-2.3344142183389773, -4.9949639447820253, 5.621420050248759e-08
-2.3344142183389773, -4.7345813340460552, -2.019510678068825e-07
-2.3344142183389773, -4.2143439816884216, 1.935610002816855e-06
-2.3344142183389773, -3.9439673506573163, -5.910015709843988e-06
-2.3344142183389773, -3.4698466904753764, .00003248229783436208
-2.3344142183389773, -3.18901481655339, -.00008395754545203607
-2.3344142183389773, -2.7505929810523733, .00029542660668078802
-2.3344142183389773, -2.4586636111723679, -.00064216275779023827
-2.3344142183389773, -2.0491024682571628, .0015576105006669127
-2.3344142183389773, -1.745247320814127, -.0028216573921177501
-2.3344142183389773, -1.3597658232112304, .0049725887533766146
-2.3344142183389773, -1.0429453488027509, -.0074199301961341219
-2.3344142183389773, -.67804569244064405, .009878618267895118
-2.3344142183389773, -.34696415708135592, -.01196410470333148
-2.3344142183389773, 0, .012398416931180841
-2.3344142183389773, .34696415708135592, -.01196410470333148
-2.3344142183389773, .67804569244064405, .009878618267895118
-2.3344142183389773, 1.0429453488027509, -.0074199301961341219
-2.3344142183389773, 1.3597658232112304, .0049725887533766146
-2.3344142183389773, 1.745247320814127, -.0028216573921177501
-2.3344142183389773, 2.0491024682571628, .0015576105006669127
-2.3344142183389773, 2.4586636111723679, -.00064216275779023827
-2.3344142183389773, 2.7505929810523733, .00029542660668078802
-2.3344142183389773, 3.18901481655339, -.00008395754545203607
-2.3344142183389773, 3.4698466904753764, .00003248229783436208
-2.3344142183389773, 3.9439673506573163, -5.910015709843988e-06
-2.3344142183389773, 4.2143439816884216, 1.935610002816855e-06
-2.3344142183389773, 4.7345813340460552, -2.019510678068825e-07
-2.3344142183389773, 4.9949639447820253, 5.621420050248759e-08
-2.3344142183389773, 5.5787388058932015, -2.811038532597326e-09
-2.3344142183389773, 5.8293820073044706, 6.655032640506397e-10
-2.3344142183389773, 6.5105901570136551, -1.138667324588604e-11
-2.3344142183389773, 6.7514447187174609, 2.282492875002970e-12
-2.3344142183389773, 7.6190485416797591, -5.770268097594140e-15
-2.3344142183389773, 7.8493828951138225, 9.629301634824545e-16
-2.2810194402529889, -4.1445471861258945, 2.599893223580905e-06
-2.2810194402529889, -3.7504397177257425, -.00001265769503570964
-2.2810194402529889, -2.8024858612875416, .00022244502229586984
-2.2810194402529889, -2.3667594107345415, -.00071007917213694962
-2.2810194402529889, -1.6365190424351082, .002706677537913075
-2.2810194402529889, -1.1544053947399682, -.0055436414683775062
-2.2810194402529889, -.53907981135137517, .0086116060594230524
-2.2810194402529889, 0, -.010553900354610825
-2.2810194402529889, .53907981135137517, .0086116060594230524
-2.2810194402529889, 1.1544053947399682, -.0055436414683775062
-2.2810194402529889, 1.6365190424351082, .002706677537913075
-2.2810194402529889, 2.3667594107345415, -.00071007917213694962
-2.2810194402529889, 2.8024858612875416, .00022244502229586984
-2.2810194402529889, 3.7504397177257425, -.00001265769503570964
-2.2810194402529889, 4.1445471861258945, 2.599893223580905e-06
-2.2594644510007993, -5.8001672523865011, 7.927389937715514e-10
-2.2594644510007993, -5.500901704467748, -4.367291123136748e-09
-2.2594644510007993, -4.5913984489365207, 3.356163137781211e-07
-2.2594644510007993, -4.2718258479322815, -1.408428037654640e-06
-2.2594644510007993, -3.5634443802816347, .00001983534621040461
-2.2594644510007993, -3.2237098287700974, -.00006415514783103409
-2.2594644510007993, -2.6206899734322149, .0003427197368067003
-2.2594644510007993, -2.2594644510007993, -.00084778151498601198
-2.2594644510007993, -1.7254183795882394, .002305137780136459
-2.2594644510007993, -1.3403751971516167, -.0042791936713372988
-2.2594644510007993, -.85667949351945005, .006926030897385505
-2.2594644510007993, -.44440300194413901, -.0093658008266989494
-2.2594644510007993, 0, .0099285675731804607
-2.2594644510007993, .44440300194413901, -.0093658008266989494
-2.2594644510007993, .85667949351945005, .006926030897385505
-2.2594644510007993, 1.3403751971516167, -.0042791936713372988
-2.2594644510007993, 1.7254183795882394, .002305137780136459
-2.2594644510007993, 2.2594644510007993, -.00084778151498601198
-2.2594644510007993, 2.6206899734322149, .0003427197368067003
-2.2594644510007993, 3.2237098287700974, -.00006415514783103409
-2.2594644510007993, 3.5634443802816347, .00001983534621040461
-2.2594644510007993, 4.2718258479322815, -1.408428037654640e-06
-2.2594644510007993, 4.5913984489365207, 3.356163137781211e-07
-2.2594644510007993, 5.500901704467748, -4.367291123136748e-09
-2.2594644510007993, 5.8001672523865011, 7.927389937715514e-10
-2.2404678516917524, 0, .021126344408967032
-2.1555027613169351, -3.3242574335521193, .00007326588179334248
-2.1555027613169351, -2.8569700138728056, -.00032271273233072515
-2.1555027613169351, -1.8891758777537109, .0025403202121870101
-2.1555027613169351, -1.3556261799742659, -.006366181841363591
-2.1555027613169351, -.61670659019259422, .011719759421078895
-2.1555027613169351, 0, -.015288901882729869
-2.1555027613169351, .61670659019259422, .011719759421078895
-2.1555027613169351, 1.3556261799742659, -.006366181841363591
-2.1555027613169351, 1.8891758777537109, .0025403202121870101
-2.1555027613169351, 2.8569700138728056, -.00032271273233072515
-2.1555027613169351, 3.3242574335521193, .00007326588179334248
-2.0883447457019444, -5.1880012243748714, 3.139103782460460e-08
-2.0883447457019444, -4.8594628283323127, -1.666071932808171e-07
-2.0883447457019444, -3.9361666071299775, 7.562741398834509e-06
-2.0883447457019444, -3.5818234835519269, -.00002929952410767077
-2.0883447457019444, -2.8651231606436447, .00025973975568353912
-2.0883447457019444, -2.4843258416389546, -.00073866466615825279
-2.0883447457019444, -1.8760350201548459, .0025562697331460425
-2.0883447457019444, -1.4659890943911582, -.0052364598641001609
-2.0883447457019444, -.92886899738106388, .009362613951748729
-2.0883447457019444, -.48493570751549764, -.013320463750567351
-2.0883447457019444, 0, .014277673678223498
-2.0883447457019444, .48493570751549764, -.013320463750567351
-2.0883447457019444, .92886899738106388, .009362613951748729
-2.0883447457019444, 1.4659890943911582, -.0052364598641001609
-2.0883447457019444, 1.8760350201548459, .0025562697331460425
-2.0883447457019444, 2.4843258416389546, -.00073866466615825279
-2.0883447457019444, 2.8651231606436447, .00025973975568353912
-2.0883447457019444, 3.5818234835519269, -.00002929952410767077
-2.0883447457019444, 3.9361666071299775, 7.562741398834509e-06
-2.0883447457019444, 4.8594628283323127, -1.666071932808171e-07
-2.0883447457019444, 5.1880012243748714, 3.139103782460460e-08
-2.0768479786778302, -6.6308781983931295, 7.476552898027834e-12
-2.0768479786778302, -6.3639478888298378, -4.287644583609036e-11
-2.0768479786778302, -5.4722257059493433, 6.536419771233118e-09
-2.0768479786778302, -5.1900935913047821, -2.982714752426598e-08
-2.0768479786778302, -4.492955302520012, 7.637226289436329e-07
-2.0768479786778302, -4.1962077112690155, -2.816356749903273e-06
-2.0768479786778302, -3.6008736241715487, .00002625527754723659
-2.0768479786778302, -3.2890824243987664, -.00007823685469371623
-2.0768479786778302, -2.7602450476307019, .00036273941323819491
-2.0768479786778302, -2.4324368270097581, -.00086683706334258787
-2.0768479786778302, -1.9519803457163336, .0023602849322955644
-2.0768479786778302, -1.6067100690287301, -.0044634150472276724
-2.0768479786778302, -1.1638291005549648, .00790368262077909
-2.0768479786778302, -.79912906832454811, -.011603682405398925
-2.0768479786778302, -.38676060450055738, .014304470872223633
-2.0768479786778302, 0, -.015886371570344431
-2.0768479786778302, .38676060450055738, .014304470872223633
-2.0768479786778302, .79912906832454811, -.011603682405398925
-2.0768479786778302, 1.1638291005549648, .00790368262077909
-2.0768479786778302, 1.6067100690287301, -.0044634150472276724
-2.0768479786778302, 1.9519803457163336, .0023602849322955644
-2.0768479786778302, 2.4324368270097581, -.00086683706334258787
-2.0768479786778302, 2.7602450476307019, .00036273941323819491
-2.0768479786778302, 3.2890824243987664, -.00007823685469371623
-2.0768479786778302, 3.6008736241715487, .00002625527754723659
-2.0768479786778302, 4.1962077112690155, -2.816356749903273e-06
-2.0768479786778302, 4.492955302520012, 7.637226289436329e-07
-2.0768479786778302, 5.1900935913047821, -2.982714752426598e-08
-2.0768479786778302, 5.4722257059493433, 6.536419771233118e-09
-2.0768479786778302, 6.3639478888298378, -4.287644583609036e-11
-2.0768479786778302, 6.6308781983931295, 7.476552898027834e-12
-2.0491024682571628, -2.3344142183389773, .0015576105006669127
-2.0491024682571628, -1.7320508075688772, -.0056587882977571433
-2.0491024682571628, -.74196378430272591, .015418754392604506
-2.0491024682571628, 0, -.022635153191028563
-2.0491024682571628, .74196378430272591, .015418754392604506
-2.0491024682571628, 1.7320508075688772, -.0056587882977571433
-2.0491024682571628, 2.3344142183389773, .0015576105006669127
-1.9573275529334242, -1.0000000000000002, .019433591851740477
-1.9573275529334242, 0, -.038867183703480954
-1.9573275529334242, 1.0000000000000002, .019433591851740477
-1.9519803457163336, -4.5127458633997826, 1.056617700047726e-06
-1.9519803457163336, -4.1445471861258945, -5.324950558540883e-06
-1.9519803457163336, -3.2054290028564703, .00013188385665479176
-1.9519803457163336, -2.8024858612875416, -.00045559899728788659
-1.9519803457163336, -2.0768479786778302, .0023602849322955644
-1.9519803457163336, -1.6365190424351082, -.0055436599997937507
-1.9519803457163336, -1.0232556637891326, .011542089974620428
-1.9519803457163336, -.53907981135137517, -.017637792229366858
-1.9519803457163336, 0, .01921412159147241
-1.9519803457163336, .53907981135137517, -.017637792229366858
-1.9519803457163336, 1.0232556637891326, .011542089974620428
-1.9519803457163336, 1.6365190424351082, -.0055436599997937507
-1.9519803457163336, 2.0768479786778302, .0023602849322955644
-1.9519803457163336, 2.8024858612875416, -.00045559899728788659
-1.9519803457163336, 3.2054290028564703, .00013188385665479176
-1.9519803457163336, 4.1445471861258945, -5.324950558540883e-06
-1.9519803457163336, 4.5127458633997826, 1.056617700047726e-06
-1.8891758777537109, -7.3825790240304316, 6.630965677451412e-14
-1.8891758777537109, -7.1394648491464796, -3.913793087570631e-13
-1.8891758777537109, -6.2628911565132519, 1.081440731829775e-10
-1.8891758777537109, -6.0077459113595975, -5.233192672940318e-10
-1.8891758777537109, -5.3205363773360386, 2.243945672861903e-08
-1.8891758777537109, -5.0540726854427405, -9.052562783750766e-08
-1.8891758777537109, -4.4658726268310316, 1.360353251371112e-06
-1.8891758777537109, -4.1880202316294044, -4.590203612304932e-06
-1.8891758777537109, -3.6644165474506383, .00003354124680418369
-1.8891758777537109, -3.3747365357780907, -.00009441873011970187
-1.8891758777537109, -2.8980512765157536, .00039941202936015171
-1.8891758777537109, -2.5958336889112403, -.00093192906635132077
-1.8891758777537109, -2.1555027613169351, .0025403202121870101
-1.8891758777537109, -1.8397799215086457, -.0048647060424237276
-1.8891758777537109, -1.4288766760783731, .009180915382196328
-1.8891758777537109, -1.0983955180915013, -.014239248082495376
-1.8891758777537109, -.71208504404237993, .019578914658305087
-1.8891758777537109, -.36524575550769767, -.024172889846616356
-1.8891758777537109, 0, .025146773182372056
-1.8891758777537109, .36524575550769767, -.024172889846616356
-1.8891758777537109, .71208504404237993, .019578914658305087
-1.8891758777537109, 1.0983955180915013, -.014239248082495376
-1.8891758777537109, 1.4288766760783731, .009180915382196328
-1.8891758777537109, 1.8397799215086457, -.0048647060424237276
-1.8891758777537109, 2.1555027613169351, .0025403202121870101
-1.8891758777537109, 2.5958336889112403, -.00093192906635132077
-1.8891758777537109, 2.8980512765157536, .00039941202936015171
-1.8891758777537109, 3.3747365357780907, -.00009441873011970187
-1.8891758777537109, 3.6644165474506383, .00003354124680418369
-1.8891758777537109, 4.1880202316294044, -4.590203612304932e-06
-1.8891758777537109, 4.4658726268310316, 1.360353251371112e-06
-1.8891758777537109, 5.0540726854427405, -9.052562783750766e-08
-1.8891758777537109, 5.3205363773360386, 2.243945672861903e-08
-1.8891758777537109, 6.0077459113595975, -5.233192672940318e-10
-1.8891758777537109, 6.2628911565132519, 1.081440731829775e-10
-1.8891758777537109, 7.1394648491464796, -3.913793087570631e-13
-1.8891758777537109, 7.3825790240304316, 6.630965677451412e-14
-1.8760350201548459, -6.0874095469012914, 3.219740812591812e-10
-1.8760350201548459, -5.8001672523865011, -1.800711783135819e-09
-1.8760350201548459, -4.8969363973455646, 1.759946308025716e-07
-1.8760350201548459, -4.5913984489365207, -7.623546407848708e-07
-1.8760350201548459, -3.8869245750597696, .00001325020687417084
-1.8760350201548459, -3.5634443802816347, -.00004505611799631874
-1.8760350201548459, -2.9630365798386675, .00029292315618364994
-1.8760350201548459, -2.6206899734322149, -.00077849011242012525
-1.8760350201548459, -2.0883447457019444, .0025562697331460425
-1.8760350201548459, -1.7254183795882394, -.005236135468365084
-1.8760350201548459, -1.2426889554854643, .010190878887624492
-1.8760350201548459, -.85667949351945005, -.015732524254860745
-1.8760350201548459, -.41259045795460181, .020015874735095592
-1.8760350201548459, 0, -.022552805853067976
-1.8760350201548459, .41259045795460181, .020015874735095592
-1.8760350201548459, .85667949351945005, -.015732524254860745
-1.8760350201548459, 1.2426889554854643, .010190878887624492
-1.8760350201548459, 1.7254183795882394, -.005236135468365084
-1.8760350201548459, 2.0883447457019444, .0025562697331460425
-1.8760350201548459, 2.6206899734322149, -.00077849011242012525
-1.8760350201548459, 2.9630365798386675, .00029292315618364994
-1.8760350201548459, 3.5634443802816347, -.00004505611799631874
-1.8760350201548459, 3.8869245750597696, .00001325020687417084
-1.8760350201548459, 4.5913984489365207, -7.623546407848708e-07
-1.8760350201548459, 4.8969363973455646, 1.759946308025716e-07
-1.8760350201548459, 5.8001672523865011, -1.800711783135819e-09
-1.8760350201548459, 6.0874095469012914, 3.219740812591812e-10
-1.8397799215086457, -3.7504397177257425, .00003009811388665902
-1.8397799215086457, -3.3242574335521193, -.00014030395701836721
-1.8397799215086457, -2.3667594107345415, .0016884625305972434
-1.8397799215086457, -1.8891758777537109, -.0048647060424237276
-1.8397799215086457, -1.1544053947399682, .013181953885862237
-1.8397799215086457, -.61670659019259422, -.022443306240669234
-1.8397799215086457, 0, .025095603419530384
-1.8397799215086457, .61670659019259422, -.022443306240669234
-1.8397799215086457, 1.1544053947399682, .013181953885862237
-1.8397799215086457, 1.8891758777537109, -.0048647060424237276
-1.8397799215086457, 2.3667594107345415, .0016884625305972434
-1.8397799215086457, 3.3242574335521193, -.00014030395701836721
-1.8397799215086457, 3.7504397177257425, .00003009811388665902
-1.745247320814127, -2.8569700138728056, .00069240252960000735
-1.745247320814127, -2.3344142183389773, -.0028216573921177501
-1.745247320814127, -1.3556261799742659, .013659084285327734
-1.745247320814127, -.74196378430272591, -.027931528639870265
-1.745247320814127, 0, .032803398434120563
-1.745247320814127, .74196378430272591, -.027931528639870265
-1.745247320814127, 1.3556261799742659, .013659084285327734
-1.745247320814127, 2.3344142183389773, -.0028216573921177501
-1.745247320814127, 2.8569700138728056, .00069240252960000735
-1.7320508075688772, -8.0740299840217116, 5.799101079795242e-16
-1.7320508075688772, -7.8493828951138225, -3.498318699276111e-15
-1.7320508075688772, -6.9859804240188152, 1.640229830391003e-12
-1.7320508075688772, -6.7514447187174609, -8.292281006869583e-12
-1.7320508075688772, -6.0730749511228979, 5.610856932430355e-10
-1.7320508075688772, -5.8293820073044706, -2.417768807488458e-09
-1.7320508075688772, -5.2477244337144251, 5.533089583023344e-08
-1.7320508075688772, -4.9949639447820253, -2.042258060247088e-07
-1.7320508075688772, -4.4763619773108685, 2.224329521134787e-06
-1.7320508075688772, -4.2143439816884216, -7.032057904252649e-06
-1.7320508075688772, -3.7414963502665177, .00004371388387599406
-1.7320508075688772, -3.4698466904753764, -.00011800796591358963
-1.7320508075688772, -3.0324042278316763, .00046812684126286874
-1.7320508075688772, -2.7505929810523733, -.0010732828419014635
-1.7320508075688772, -2.341759996287708, .0029281788134676305
-1.7320508075688772, -2.0491024682571628, -.0056587882977571433
-1.7320508075688772, -1.6641248391179071, .011199385238148321
-1.7320508075688772, -1.3597658232112304, -.018065380937736575
-1.7320508075688772, -.99516242227121554, .026984382235612579
-1.7320508075688772, -.67804569244064405, -.035888952615843329
-1.7320508075688772, -.33117931571527381, .041707266097822528
-1.7320508075688772, 0, -.04504336392881287
-1.7320508075688772, .33117931571527381, .041707266097822528
-1.7320508075688772, .67804569244064405, -.035888952615843329
-1.7320508075688772, .99516242227121554, .026984382235612579
-1.7320508075688772, 1.3597658232112304, -.018065380937736575
-1.7320508075688772, 1.6641248391179071, .011199385238148321
-1.7320508075688772, 2.0491024682571628, -.0056587882977571433
-1.7320508075688772, 2.341759996287708, .0029281788134676305
-1.7320508075688772, 2.7505929810523733, -.0010732828419014635
-1.7320508075688772, 3.0324042278316763, .00046812684126286874
-1.7320508075688772, 3.4698466904753764, -.00011800796591358963
-1.7320508075688772, 3.7414963502665177, .00004371388387599406
-1.7320508075688772, 4.2143439816884216, -7.032057904252649e-06
-1.7320508075688772, 4.4763619773108685, 2.224329521134787e-06
-1.7320508075688772, 4.9949639447820253, -2.042258060247088e-07
-1.7320508075688772, 5.2477244337144251, 5.533089583023344e-08
-1.7320508075688772, 5.8293820073044706, -2.417768807488458e-09
-1.7320508075688772, 6.0730749511228979, 5.610856932430355e-10
-1.7320508075688772, 6.7514447187174609, -8.292281006869583e-12
-1.7320508075688772, 6.9859804240188152, 1.640229830391003e-12
-1.7320508075688772, 7.8493828951138225, -3.498318699276111e-15
-1.7320508075688772, 8.0740299840217116, 5.799101079795242e-16
-1.7254183795882394, -5.500901704467748, 1.187476677285563e-08
-1.7254183795882394, -5.1880012243748714, -6.429983675467301e-08
-1.7254183795882394, -4.2718258479322815, 3.829548796254108e-06
-1.7254183795882394, -3.9361666071299775, -.00001549114241077156
-1.7254183795882394, -3.2237098287700974, .00017443934839508302
-1.7254183795882394, -2.8651231606436447, -.00053203796518188501
-1.7254183795882394, -2.2594644510007993, .002305137780136459
-1.7254183795882394, -1.8760350201548459, -.005236135468365084
-1.7254183795882394, -1.3403751971516167, .011635227739641384
-1.7254183795882394, -.92886899738106388, -.019177911608344544
-1.7254183795882394, -.44440300194413901, .025465831638489124
-1.7254183795882394, 0, -.029245674892172075
-1.7254183795882394, .44440300194413901, .025465831638489124
-1.7254183795882394, .92886899738106388, -.019177911608344544
-1.7254183795882394, 1.3403751971516167, .011635227739641384
-1.7254183795882394, 1.8760350201548459, -.005236135468365084
-1.7254183795882394, 2.2594644510007993, .002305137780136459
-1.7254183795882394, 2.8651231606436447, -.00053203796518188501
-1.7254183795882394, 3.2237098287700974, .00017443934839508302
-1.7254183795882394, 3.9361666071299775, -.00001549114241077156
-1.7254183795882394, 4.2718258479322815, 3.829548796254108e-06
-1.7254183795882394, 5.1880012243748714, -6.429983675467301e-08
-1.7254183795882394, 5.500901704467748, 1.187476677285563e-08
-1.6641248391179071, -1.7320508075688772, .011199385238148321
-1.6641248391179071, -1.0000000000000002, -.033598155714444952
-1.6641248391179071, 0, .044797540952593265
-1.6641248391179071, 1.0000000000000002, -.033598155714444952
-1.6641248391179071, 1.7320508075688772, .011199385238148321
-1.6365190424351082, -6.889122439895333, 3.029848425164212e-12
-1.6365190424351082, -6.6308781983931295, -1.756036598379162e-11
-1.6365190424351082, -5.7444600786594071, 3.292115503789119e-09
-1.6365190424351082, -5.4722257059493433, -1.535225189630134e-08
-1.6365190424351082, -4.778531589629984, 4.704461679573983e-07
-1.6365190424351082, -4.492955302520012, -1.793774357951952e-06
-1.6365190424351082, -3.9000657171980104, .00001975391987687662
-1.6365190424351082, -3.6008736241715487, -.00006166642422300227
-1.6365190424351082, -3.0737971753281941, .00033518257235220182
-1.6365190424351082, -2.7602450476307019, -.00085197509334666345
-1.6365190424351082, -2.2810194402529889, .002706677537913075
-1.6365190424351082, -1.9519803457163336, -.0055436599997937507
-1.6365190424351082, -1.5098833077967408, .011419913960784091
-1.6365190424351082, -1.1638291005549648, -.018563576200634466
-1.6365190424351082, -.7518426007038963, .026579026671241322
-1.6365190424351082, -.38676060450055738, -.033597266968711396
-1.6365190424351082, 0, .03511785085479726
-1.6365190424351082, .38676060450055738, -.033597266968711396
-1.6365190424351082, .7518426007038963, .026579026671241322
-1.6365190424351082, 1.1638291005549648, -.018563576200634466
-1.6365190424351082, 1.5098833077967408, .011419913960784091
-1.6365190424351082, 1.9519803457163336, -.0055436599997937507
-1.6365190424351082, 2.2810194402529889, .002706677537913075
-1.6365190424351082, 2.7602450476307019, -.00085197509334666345
-1.6365190424351082, 3.0737971753281941, .00033518257235220182
-1.6365190424351082, 3.6008736241715487, -.00006166642422300227
-1.6365190424351082, 3.9000657171980104, .00001975391987687662
-1.6365190424351082, 4.492955302520012, -1.793774357951952e-06
-1.6365190424351082, 4.778531589629984, 4.704461679573983e-07
-1.6365190424351082, 5.4722257059493433, -1.535225189630134e-08
-1.6365190424351082, 5.7444600786594071, 3.292115503789119e-09
-1.6365190424351082, 6.6308781983931295, -1.756036598379162e-11
-1.6365190424351082, 6.889122439895333, 3.029848425164212e-12
-1.6067100690287301, -4.8594628283323127, 3.854490549733712e-07
-1.6067100690287301, -4.5127458633997826, -1.998116107521523e-06
-1.6067100690287301, -3.5818234835519269, .00006778503170289899
-1.6067100690287301, -3.2054290028564703, -.00024939886800315407
-1.6067100690287301, -2.4843258416389546, .001708915394985537
-1.6067100690287301, -2.0768479786778302, -.0044634150472276724
-1.6067100690287301, -1.4659890943911582, .012114654033102837
-1.6067100690287301, -1.0232556637891326, -.021826660571472603
-1.6067100690287301, -.48493570751549764, .030817157791075977
-1.6067100690287301, 0, -.036334850194222557
-1.6067100690287301, .48493570751549764, .030817157791075977
-1.6067100690287301, 1.0232556637891326, -.021826660571472603
-1.6067100690287301, 1.4659890943911582, .012114654033102837
-1.6067100690287301, 2.0768479786778302, -.0044634150472276724
-1.6067100690287301, 2.4843258416389546, .001708915394985537
-1.6067100690287301, 3.2054290028564703, -.00024939886800315407
-1.6067100690287301, 3.5818234835519269, .00006778503170289899
-1.6067100690287301, 4.5127458633997826, -1.998116107521523e-06
-1.6067100690287301, 4.8594628283323127, 3.854490549733712e-07
-1.5934804298164202, 0, .07206936401717845
-1.5098833077967408, -4.1445471861258945, .00001096937352330924
-1.5098833077967408, -3.7504397177257425, -.00005340487968178877
-1.5098833077967408, -2.8024858612875416, .00093853182731999099
-1.5098833077967408, -2.3667594107345415, -.0029959398330844625
-1.5098833077967408, -1.6365190424351082, .011419913960784091
-1.5098833077967408, -1.1544053947399682, -.023389527459971495
-1.5098833077967408, -.53907981135137517, .036333770419731654
-1.5098833077967408, 0, -.044528626817242602
-1.5098833077967408, .53907981135137517, .036333770419731654
-1.5098833077967408, 1.1544053947399682, -.023389527459971495
-1.5098833077967408, 1.6365190424351082, .011419913960784091
-1.5098833077967408, 2.3667594107345415, -.0029959398330844625
-1.5098833077967408, 2.8024858612875416, .00093853182731999099
-1.5098833077967408, 3.7504397177257425, -.00005340487968178877
-1.5098833077967408, 4.1445471861258945, .00001096937352330924
-1.4659890943911582, -6.3639478888298378, 1.163757575706385e-10
-1.4659890943911582, -6.0874095469012914, -6.595565139048271e-10
-1.4659890943911582, -5.1900935913047821, 8.095719739871424e-08
-1.4659890943911582, -4.8969363973455646, -3.605209608927216e-07
-1.4659890943911582, -4.1962077112690155, 7.644188877318117e-06
-1.4659890943911582, -3.8869245750597696, -.00002714274459691991
-1.4659890943911582, -3.2890824243987664, .00021235139847485565
-1.4659890943911582, -2.9630365798386675, -.00060004636080929327
-1.4659890943911582, -2.4324368270097581, .0023527794333150754
-1.4659890943911582, -2.0883447457019444, -.0052364598641001609
-1.4659890943911582, -1.6067100690287301, .012114654033102837
-1.4659890943911582, -1.2426889554854643, -.020875781449430711
-1.4659890943911582, -.79912906832454811, .031494852341532653
-1.4659890943911582, -.41259045795460181, -.04100205989067917
-1.4659890943911582, 0, .043118978042515528
-1.4659890943911582, .41259045795460181, -.04100205989067917
-1.4659890943911582, .79912906832454811, .031494852341532653
-1.4659890943911582, 1.2426889554854643, -.020875781449430711
-1.4659890943911582, 1.6067100690287301, .012114654033102837
-1.4659890943911582, 2.0883447457019444, -.0052364598641001609
-1.4659890943911582, 2.4324368270097581, .0023527794333150754
-1.4659890943911582, 2.9630365798386675, -.00060004636080929327
-1.4659890943911582, 3.2890824243987664, .00021235139847485565
-1.4659890943911582, 3.8869245750597696, -.00002714274459691991
-1.4659890943911582, 4.1962077112690155, 7.644188877318117e-06
-1.4659890943911582, 4.8969363973455646, -3.605209608927216e-07
-1.4659890943911582, 5.1900935913047821, 8.095719739871424e-08
-1.4659890943911582, 6.0874095469012914, -6.595565139048271e-10
-1.4659890943911582, 6.3639478888298378, 1.163757575706385e-10
-1.4288766760783731, -3.3242574335521193, .00026478861126234967
-1.4288766760783731, -2.8569700138728056, -.0011663089850137559
-1.4288766760783731, -1.8891758777537109, .009180915382196328
-1.4288766760783731, -1.3556261799742659, -.023007877712753179
-1.4288766760783731, -.61670659019259422, .042356124644613323
-1.4288766760783731, 0, -.05525528388061015
-1.4288766760783731, .61670659019259422, .042356124644613323
-1.4288766760783731, 1.3556261799742659, -.023007877712753179
-1.4288766760783731, 1.8891758777537109, .009180915382196328
-1.4288766760783731, 2.8569700138728056, -.0011663089850137559
-1.4288766760783731, 3.3242574335521193, .00026478861126234967
-1.3597658232112304, -2.3344142183389773, .0049725887533766146
-1.3597658232112304, -1.7320508075688772, -.018065380937736575
-1.3597658232112304, -.74196378430272591, .049223554059833079
-1.3597658232112304, 0, -.072261523750946258
-1.3597658232112304, .74196378430272591, .049223554059833079
-1.3597658232112304, 1.7320508075688772, -.018065380937736575
-1.3597658232112304, 2.3344142183389773, .0049725887533766146
-1.3556261799742659, -7.6190485416797591, 2.793272440309330e-14
-1.3556261799742659, -7.3825790240304316, -1.661756383466068e-13
-1.3556261799742659, -6.5105901570136551, 5.512062875865735e-11
-1.3556261799742659, -6.2628911565132519, -2.710149813577456e-10
-1.3556261799742659, -5.5787388058932015, 1.360768049066127e-08
-1.3556261799742659, -5.3205363773360386, -5.623450983481057e-08
-1.3556261799742659, -4.7345813340460552, 9.776050998933722e-07
-1.3556261799742659, -4.4658726268310316, -3.409119891725348e-06
-1.3556261799742659, -3.9439673506573163, .00002860921490109856
-1.3556261799742659, -3.6644165474506383, -.00008405620492924276
-1.3556261799742659, -3.18901481655339, .0004064218402000588
-1.3556261799742659, -2.8980512765157536, -.0010009484616688128
-1.3556261799742659, -2.4586636111723679, .0031085826571496554
-1.3556261799742659, -2.1555027613169351, -.006366181841363591
-1.3556261799742659, -1.745247320814127, .013659084285327734
-1.3556261799742659, -1.4288766760783731, -.023007877712753179
-1.3556261799742659, -1.0429453488027509, .035918411719070578
-1.3556261799742659, -.71208504404237993, -.049065834446123543
-1.3556261799742659, -.34696415708135592, .057915860018228266
-1.3556261799742659, 0, -.063019193420770489
-1.3556261799742659, .34696415708135592, .057915860018228266
-1.3556261799742659, .71208504404237993, -.049065834446123543
-1.3556261799742659, 1.0429453488027509, .035918411719070578
-1.3556261799742659, 1.4288766760783731, -.023007877712753179
-1.3556261799742659, 1.745247320814127, .013659084285327734
-1.3556261799742659, 2.1555027613169351, -.006366181841363591
-1.3556261799742659, 2.4586636111723679, .0031085826571496554
-1.3556261799742659, 2.8980512765157536, -.0010009484616688128
-1.3556261799742659, 3.18901481655339, .0004064218402000588
-1.3556261799742659, 3.6644165474506383, -.00008405620492924276
-1.3556261799742659, 3.9439673506573163, .00002860921490109856
-1.3556261799742659, 4.4658726268310316, -3.409119891725348e-06
-1.3556261799742659, 4.7345813340460552, 9.776050998933722e-07
-1.3556261799742659, 5.3205363773360386, -5.623450983481057e-08
-1.3556261799742659, 5.5787388058932015, 1.360768049066127e-08
-1.3556261799742659, 6.2628911565132519, -2.710149813577456e-10
-1.3556261799742659, 6.5105901570136551, 5.512062875865735e-11
-1.3556261799742659, 7.3825790240304316, -1.661756383466068e-13
-1.3556261799742659, 7.6190485416797591, 2.793272440309330e-14
-1.3403751971516167, -5.8001672523865011, 4.001365475897988e-09
-1.3403751971516167, -5.500901704467748, -2.204398681106262e-08
-1.3403751971516167, -4.5913984489365207, 1.694029865631813e-06
-1.3403751971516167, -4.2718258479322815, -7.109067889225196e-06
-1.3403751971516167, -3.5634443802816347, .00010011929544577078
-1.3403751971516167, -3.2237098287700974, -.00032382435536684176
-1.3403751971516167, -2.6206899734322149, .0017298845314052574
-1.3403751971516167, -2.2594644510007993, -.0042791936713372988
-1.3403751971516167, -1.7254183795882394, .011635227739641384
-1.3403751971516167, -1.3403751971516167, -.021599313211158325
-1.3403751971516167, -.85667949351945005, .034959275544085976
-1.3403751971516167, -.44440300194413901, -.047274061672926485
-1.3403751971516167, 0, .050114637761710989
-1.3403751971516167, .44440300194413901, -.047274061672926485
-1.3403751971516167, .85667949351945005, .034959275544085976
-1.3403751971516167, 1.3403751971516167, -.021599313211158325
-1.3403751971516167, 1.7254183795882394, .011635227739641384
-1.3403751971516167, 2.2594644510007993, -.0042791936713372988
-1.3403751971516167, 2.6206899734322149, .0017298845314052574
-1.3403751971516167, 3.2237098287700974, -.00032382435536684176
-1.3403751971516167, 3.5634443802816347, .00010011929544577078
-1.3403751971516167, 4.2718258479322815, -7.109067889225196e-06
-1.3403751971516167, 4.5913984489365207, 1.694029865631813e-06
-1.3403751971516167, 5.500901704467748, -2.204398681106262e-08
-1.3403751971516167, 5.8001672523865011, 4.001365475897988e-09
-1.299876468303979, -1.0000000000000002, .056036691301310462
-1.299876468303979, 0, -.11207338260262092
-1.299876468303979, 1.0000000000000002, .056036691301310462
-1.2426889554854643, -5.1880012243748714, 1.251441741375531e-07
-1.2426889554854643, -4.8594628283323127, -6.641997542419951e-07
-1.2426889554854643, -3.9361666071299775, .00003014978452962153
-1.2426889554854643, -3.5818234835519269, -.00011680610139636161
-1.2426889554854643, -2.8651231606436447, .0010354839937859162
-1.2426889554854643, -2.4843258416389546, -.0029447761532277504
-1.2426889554854643, -1.8760350201548459, .010190878887624492
-1.2426889554854643, -1.4659890943911582, -.020875781449430711
-1.2426889554854643, -.92886899738106388, .037325194449033351
-1.2426889554854643, -.48493570751549764, -.053103642017447765
-1.2426889554854643, 0, .056919675324218641
-1.2426889554854643, .48493570751549764, -.053103642017447765
-1.2426889554854643, .92886899738106388, .037325194449033351
-1.2426889554854643, 1.4659890943911582, -.020875781449430711
-1.2426889554854643, 1.8760350201548459, .010190878887624492
-1.2426889554854643, 2.4843258416389546, -.0029447761532277504
-1.2426889554854643, 2.8651231606436447, .0010354839937859162
-1.2426889554854643, 3.5818234835519269, -.00011680610139636161
-1.2426889554854643, 3.9361666071299775, .00003014978452962153
-1.2426889554854643, 4.8594628283323127, -6.641997542419951e-07
-1.2426889554854643, 5.1880012243748714, 1.251441741375531e-07
-1.1638291005549648, -4.5127458633997826, 3.538204577933141e-06
-1.1638291005549648, -4.1445471861258945, -.00001783120275445507
-1.1638291005549648, -3.2054290028564703, .00044162809817627072
-1.1638291005549648, -2.8024858612875416, -.0015256250750228185
-1.1638291005549648, -2.0768479786778302, .00790368262077909
-1.1638291005549648, -1.6365190424351082, -.018563576200634466
-1.1638291005549648, -1.0232556637891326, .038650001400954787
-1.1638291005549648, -.53907981135137517, -.059062153897062888
-1.1638291005549648, 0, .064340672101973126
-1.1638291005549648, .53907981135137517, -.059062153897062888
-1.1638291005549648, 1.0232556637891326, .038650001400954787
-1.1638291005549648, 1.6365190424351082, -.018563576200634466
-1.1638291005549648, 2.0768479786778302, .00790368262077909
-1.1638291005549648, 2.8024858612875416, -.0015256250750228185
-1.1638291005549648, 3.2054290028564703, .00044162809817627072
-1.1638291005549648, 4.1445471861258945, -.00001783120275445507
-1.1638291005549648, 4.5127458633997826, 3.538204577933141e-06
-1.1544053947399682, -7.1394648491464796, 1.060525333889614e-12
-1.1544053947399682, -6.889122439895333, -6.205539129566614e-12
-1.1544053947399682, -6.0077459113595975, 1.418044664753512e-09
-1.1544053947399682, -5.7444600786594071, -6.742697558115982e-09
-1.1544053947399682, -5.0540726854427405, 2.452984088321638e-07
-1.1544053947399682, -4.778531589629984, -9.635373437719342e-07
-1.1544053947399682, -4.1880202316294044, .00001243813126969029
-1.1544053947399682, -3.9000657171980104, -.00004045869811181653
-1.1544053947399682, -3.3747365357780907, .00025584759604086517
-1.1544053947399682, -3.0737971753281941, -.00068649921593607428
-1.1544053947399682, -2.5958336889112403, .0025252596704521983
-1.1544053947399682, -2.2810194402529889, -.0055436414683775062
-1.1544053947399682, -1.8397799215086457, .013181953885862237
-1.1544053947399682, -1.5098833077967408, -.023389527459971495
-1.1544053947399682, -1.0983955180915013, .038584265926022654
-1.1544053947399682, -.7518426007038963, -.054437439399379652
-1.1544053947399682, -.36524575550769767, .065501577375344622
-1.1544053947399682, 0, -.071926105548965738
-1.1544053947399682, .36524575550769767, .065501577375344622
-1.1544053947399682, .7518426007038963, -.054437439399379652
-1.1544053947399682, 1.0983955180915013, .038584265926022654
-1.1544053947399682, 1.5098833077967408, -.023389527459971495
-1.1544053947399682, 1.8397799215086457, .013181953885862237
-1.1544053947399682, 2.2810194402529889, -.0055436414683775062
-1.1544053947399682, 2.5958336889112403, .0025252596704521983
-1.1544053947399682, 3.0737971753281941, -.00068649921593607428
-1.1544053947399682, 3.3747365357780907, .00025584759604086517
-1.1544053947399682, 3.9000657171980104, -.00004045869811181653
-1.1544053947399682, 4.1880202316294044, .00001243813126969029
-1.1544053947399682, 4.778531589629984, -9.635373437719342e-07
-1.1544053947399682, 5.0540726854427405, 2.452984088321638e-07
-1.1544053947399682, 5.7444600786594071, -6.742697558115982e-09
-1.1544053947399682, 6.0077459113595975, 1.418044664753512e-09
-1.1544053947399682, 6.889122439895333, -6.205539129566614e-12
-1.1544053947399682, 7.1394648491464796, 1.060525333889614e-12
-1.0983955180915013, -3.7504397177257425, .00008809874773724449
-1.0983955180915013, -3.3242574335521193, -.00041067699333070692
-1.0983955180915013, -2.3667594107345415, .0049422178116220773
-1.0983955180915013, -1.8891758777537109, -.014239248082495376
-1.0983955180915013, -1.1544053947399682, .038584265926022654
-1.0983955180915013, -.61670659019259422, -.065692726870930238
-1.0983955180915013, 0, .073456138922748715
-1.0983955180915013, .61670659019259422, -.065692726870930238
-1.0983955180915013, 1.1544053947399682, .038584265926022654
-1.0983955180915013, 1.8891758777537109, -.014239248082495376
-1.0983955180915013, 2.3667594107345415, .0049422178116220773
-1.0983955180915013, 3.3242574335521193, -.00041067699333070692
-1.0983955180915013, 3.7504397177257425, .00008809874773724449
-1.0429453488027509, -2.8569700138728056, .0018207662105294848
-1.0429453488027509, -2.3344142183389773, -.0074199301961341219
-1.0429453488027509, -1.3556261799742659, .035918411719070578
-1.0429453488027509, -.74196378430272591, -.073449736795866014
-1.0429453488027509, 0, .086260978124800172
-1.0429453488027509, .74196378430272591, -.073449736795866014
-1.0429453488027509, 1.3556261799742659, .035918411719070578
-1.0429453488027509, 2.3344142183389773, -.0074199301961341219
-1.0429453488027509, 2.8569700138728056, .0018207662105294848
-1.0232556637891326, -6.6308781983931295, 3.656128337230776e-11
-1.0232556637891326, -6.3639478888298378, -2.096712091242224e-10
-1.0232556637891326, -5.4722257059493433, 3.196391422034174e-08
-1.0232556637891326, -5.1900935913047821, -1.458585002601899e-07
-1.0232556637891326, -4.492955302520012, 3.734699645075402e-06
-1.0232556637891326, -4.1962077112690155, -.00001377233848474296
-1.0232556637891326, -3.6008736241715487, .0001283916071370693
-1.0232556637891326, -3.2890824243987664, -.00038258805276019021
-1.0232556637891326, -2.7602450476307019, .0017738413221425342
-1.0232556637891326, -2.4324368270097581, -.0042389421893674218
-1.0232556637891326, -1.9519803457163336, .011542089974620428
-1.0232556637891326, -1.6067100690287301, -.021826660571472603
-1.0232556637891326, -1.1638291005549648, .038650001400954787
-1.0232556637891326, -.79912906832454811, -.056743465387365799
-1.0232556637891326, -.38676060450055738, .069950660442494164
-1.0232556637891326, 0, -.077686353679694675
-1.0232556637891326, .38676060450055738, .069950660442494164
-1.0232556637891326, .79912906832454811, -.056743465387365799
-1.0232556637891326, 1.1638291005549648, .038650001400954787
-1.0232556637891326, 1.6067100690287301, -.021826660571472603
-1.0232556637891326, 1.9519803457163336, .011542089974620428
-1.0232556637891326, 2.4324368270097581, -.0042389421893674218
-1.0232556637891326, 2.7602450476307019, .0017738413221425342
-1.0232556637891326, 3.2890824243987664, -.00038258805276019021
-1.0232556637891326, 3.6008736241715487, .0001283916071370693
-1.0232556637891326, 4.1962077112690155, -.00001377233848474296
-1.0232556637891326, 4.492955302520012, 3.734699645075402e-06
-1.0232556637891326, 5.1900935913047821, -1.458585002601899e-07
-1.0232556637891326, 5.4722257059493433, 3.196391422034174e-08
-1.0232556637891326, 6.3639478888298378, -2.096712091242224e-10
-1.0232556637891326, 6.6308781983931295, 3.656128337230776e-11
-1.0000000000000002, -8.2933860274173536, 2.866191583901044e-16
-1.0000000000000002, -8.0740299840217116, -1.739730323938572e-15
-1.0000000000000002, -7.2146594350518622, 9.614676557838958e-13
-1.0000000000000002, -6.9859804240188152, -4.920689491173006e-12
-1.0000000000000002, -6.3103498544483996, 3.835444431199954e-10
-1.0000000000000002, -6.0730749511228979, -1.683257079729106e-09
-1.0000000000000002, -5.4934739864717947, 4.387531241930859e-08
-1.0000000000000002, -5.2477244337144251, -1.659926874907002e-07
-1.0000000000000002, -4.7307241974514733, 2.044988622496078e-06
-1.0000000000000002, -4.4763619773108685, -6.672988563404357e-06
-1.0000000000000002, -4.0047753217333044, .0000467040930451565
-1.0000000000000002, -3.7414963502665177, -.00013114165162798211
-1.0000000000000002, -3.3050400217529652, .00058381431874893078
-1.0000000000000002, -3.0324042278316763, -.0014043805237886056
-1.0000000000000002, -2.624323634059182, .0042898391957328329
-1.0000000000000002, -2.341759996287708, -.0087845364404028885
-1.0000000000000002, -1.9573275529334242, .019433591851740477
-1.0000000000000002, -1.6641248391179071, -.033598155714444952
-1.0000000000000002, -1.299876468303979, .056036691301310462
-1.0000000000000002, -.99516242227121554, -.080953146706837703
-1.0000000000000002, -.6484711535344958, .10497983478877132
-1.0000000000000002, -.33117931571527381, -.12512179829346753
-1.0000000000000002, 0, .12925487040441955
-1.0000000000000002, .33117931571527381, -.12512179829346753
-1.0000000000000002, .6484711535344958, .10497983478877132
-1.0000000000000002, .99516242227121554, -.080953146706837703
-1.0000000000000002, 1.299876468303979, .056036691301310462
-1.0000000000000002, 1.6641248391179071, -.033598155714444952
-1.0000000000000002, 1.9573275529334242, .019433591851740477
-1.0000000000000002, 2.341759996287708, -.0087845364404028885
-1.0000000000000002, 2.624323634059182, .0042898391957328329
-1.0000000000000002, 3.0324042278316763, -.0014043805237886056
-1.0000000000000002, 3.3050400217529652, .00058381431874893078
-1.0000000000000002, 3.7414963502665177, -.00013114165162798211
-1.0000000000000002, 4.0047753217333044, .0000467040930451565
-1.0000000000000002, 4.4763619773108685, -6.672988563404357e-06
-1.0000000000000002, 4.7307241974514733, 2.044988622496078e-06
-1.0000000000000002, 5.2477244337144251, -1.659926874907002e-07
-1.0000000000000002, 5.4934739864717947, 4.387531241930859e-08
-1.0000000000000002, 6.0730749511228979, -1.683257079729106e-09
-1.0000000000000002, 6.3103498544483996, 3.835444431199954e-10
-1.0000000000000002, 6.9859804240188152, -4.920689491173006e-12
-1.0000000000000002, 7.2146594350518622, 9.614676557838958e-13
-1.0000000000000002, 8.0740299840217116, -1.739730323938572e-15
