.79912906832454811, -3.5818234835519269, -.00017622290810909117
.79912906832454811, -2.8651231606436447, .0015622129195646127
.79912906832454811, -2.4843258416389546, -.0044427218377161007
.79912906832454811, -1.8760350201548459, .015374764608149719
.79912906832454811, -1.4659890943911582, -.031494852341532632
.79912906832454811, -.92886899738106388, .056311735713412372
.79912906832454811, -.48493570751549764, -.080116347653310729
.79912906832454811, 0, .085873516831300789
.79912906832454811, .48493570751549764, -.080116347653310729
.79912906832454811, .92886899738106388, .056311735713412372
.79912906832454811, 1.4659890943911582, -.031494852341532632
.79912906832454811, 1.8760350201548459, .015374764608149719
.79912906832454811, 2.4843258416389546, -.0044427218377161007
.79912906832454811, 2.8651231606436447, .0015622129195646127
.79912906832454811, 3.5818234835519269, -.00017622290810909117
.79912906832454811, 3.9361666071299775, .00004548634570589213
.79912906832454811, 4.8594628283323127, -1.002064197491604e-06
.79912906832454811, 5.1880012243748714, 1.888023830587078e-07
.85667949351945005, -5.8001672523865011, 6.476355838584954e-09
.85667949351945005, -5.500901704467748, -3.567899597011338e-08
.85667949351945005, -4.5913984489365207, 2.741849070550030e-06
.85667949351945005, -4.2718258479322815, -.00001150628544395783
.85667949351945005, -3.5634443802816347, .00016204672817838855
.85667949351945005, -3.2237098287700974, -.00052412151981328324
.85667949351945005, -2.6206899734322149, .002799881153702906
.85667949351945005, -2.2594644510007993, -.0069260308973855007
.85667949351945005, -1.7254183795882394, .018832040102005718
.85667949351945005, -1.3403751971516167, -.034959275544085955
.85667949351945005, -.85667949351945005, .0565828614372774
.85667949351945005, -.44440300194413901, -.076514791556343234
.85667949351945005, 0, .081112367470954169
.85667949351945005, .44440300194413901, -.076514791556343234
.85667949351945005, .85667949351945005, .0565828614372774
.85667949351945005, 1.3403751971516167, -.034959275544085955
.85667949351945005, 1.7254183795882394, .018832040102005718
.85667949351945005, 2.2594644510007993, -.0069260308973855007
.85667949351945005, 2.6206899734322149, .002799881153702906
.85667949351945005, 3.2237098287700974, -.00052412151981328324
.85667949351945005, 3.5634443802816347, .00016204672817838855
.85667949351945005, 4.2718258479322815, -.00001150628544395783
.85667949351945005, 4.5913984489365207, 2.741849070550030e-06
.85667949351945005, 5.500901704467748, -3.567899597011338e-08
.85667949351945005, 5.8001672523865011, 6.476355838584954e-09
.92886899738106388, -6.3639478888298378, 2.080759367499557e-10
.92886899738106388, -6.0874095469012914, -1.179264842911812e-09
.92886899738106388, -5.1900935913047821, 1.447487435273082e-07
.92886899738106388, -4.8969363973455646, -6.445993411489818e-07
.92886899738106388, -4.1962077112690155, .00001366755237125828
.92886899738106388, -3.8869245750597696, -.0000485303135796199
.92886899738106388, -3.2890824243987664, .00037967715166965847
.92886899738106388, -2.9630365798386675, -.0010728626925844949
.92886899738106388, -2.4324368270097581, .0042066904205191541
.92886899738106388, -2.0883447457019444, -.0093626139517487238
.92886899738106388, -1.6067100690287301, .021660593571727605
.92886899738106388, -1.2426889554854643, -.03732519444903333
.92886899738106388, -.79912906832454811, .056311735713412372
.92886899738106388, -.41259045795460181, -.073310302751432813
.92886899738106388, 0, .077095281140930907
.92886899738106388, .41259045795460181, -.073310302751432813
.92886899738106388, .79912906832454811, .056311735713412372
.92886899738106388, 1.2426889554854643, -.03732519444903333
.92886899738106388, 1.6067100690287301, .021660593571727605
.92886899738106388, 2.0883447457019444, -.0093626139517487238
.92886899738106388, 2.4324368270097581, .0042066904205191541
.92886899738106388, 2.9630365798386675, -.0010728626925844949
.92886899738106388, 3.2890824243987664, .00037967715166965847
.92886899738106388, 3.8869245750597696, -.0000485303135796199
.92886899738106388, 4.1962077112690155, .00001366755237125828
.92886899738106388, 4.8969363973455646, -6.445993411489818e-07
.92886899738106388, 5.1900935913047821, 1.447487435273082e-07
.92886899738106388, 6.0874095469012914, -1.179264842911812e-09
.92886899738106388, 6.3639478888298378, 2.080759367499557e-10
.95342192293210926, -1.0000000000000002, .080729756433500083
.95342192293210926, 0, -.16145951286700017
.95342192293210926, 1.0000000000000002, .080729756433500083
.99516242227121554, -2.3344142183389773, .0074275896026820536
.99516242227121554, -1.7320508075688772, -.026984382235612565
.99516242227121554, -.74196378430272591, .073525557104155592
.99516242227121554, 0, -.10793752894245021
.99516242227121554, .74196378430272591, .073525557104155592
.99516242227121554, 1.7320508075688772, -.026984382235612565
.99516242227121554, 2.3344142183389773, .0074275896026820536
1.0000000000000002, -8.5078035191952583, 4.695096844520958e-17
1.0000000000000002, -8.2933860274173536, -2.866191583901042e-16
1.0000000000000002, -7.437890666021663, 1.857487076381207e-13
1.0000000000000002, -7.2146594350518622, -9.614676557838952e-13
1.0000000000000002, -6.5416750050986341, 8.593324639824341e-11
1.0000000000000002, -6.3103498544483996, -3.835444431199952e-10
1.0000000000000002, -5.7327471752512009, 1.133730836740232e-08
1.0000000000000002, -5.4934739864717947, -4.387531241930856e-08
1.0000000000000002, -4.9780413746391208, 6.088298727212912e-07
1.0000000000000002, -4.7307241974514733, -2.044988622496077e-06
1.0000000000000002, -4.2603836050199053, .00001604750282637299
1.0000000000000002, -4.0047753217333044, -.00004670409304515647
1.0000000000000002, -3.569306764073561, .00023235935938969871
1.0000000000000002, -3.3050400217529652, -.00058381431874893045
1.0000000000000002, -2.897728643223314, .0019883044645906548
1.0000000000000002, -2.624323634059182, -.0042898391957328303
1.0000000000000002, -2.2404678516917524, .010563172204483509
1.0000000000000002, -1.9573275529334242, -.019433591851740466
1.0000000000000002, -1.5934804298164202, .036034682008589204
1.0000000000000002, -1.299876468303979, -.056036691301310428
1.0000000000000002, -.95342192293210926, .080729756433500083
1.0000000000000002, -.6484711535344958, -.10497983478877126
1.0000000000000002, -.31737009662945231, .12043505777332023
1.0000000000000002, 0, -.12925487040441946
1.0000000000000002, .31737009662945231, .12043505777332023
1.0000000000000002, .6484711535344958, -.10497983478877126
1.0000000000000002, .95342192293210926, .080729756433500083
1.0000000000000002, 1.299876468303979, -.056036691301310428
1.0000000000000002, 1.5934804298164202, .036034682008589204
1.0000000000000002, 1.9573275529334242, -.019433591851740466
1.0000000000000002, 2.2404678516917524, .010563172204483509
1.0000000000000002, 2.624323634059182, -.0042898391957328303
1.0000000000000002, 2.897728643223314, .0019883044645906548
1.0000000000000002, 3.3050400217529652, -.00058381431874893045
1.0000000000000002, 3.569306764073561, .00023235935938969871
1.0000000000000002, 4.0047753217333044, -.00004670409304515647
1.0000000000000002, 4.2603836050199053, .00001604750282637299
1.0000000000000002, 4.7307241974514733, -2.044988622496077e-06
1.0000000000000002, 4.9780413746391208, 6.088298727212912e-07
1.0000000000000002, 5.4934739864717947, -4.387531241930856e-08
1.0000000000000002, 5.7327471752512009, 1.133730836740232e-08
1.0000000000000002, 6.3103498544483996, -3.835444431199952e-10
1.0000000000000002, 6.5416750050986341, 8.593324639824341e-11
1.0000000000000002, 7.2146594350518622, -9.614676557838952e-13
1.0000000000000002, 7.437890666021663, 1.857487076381207e-13
1.0000000000000002, 8.2933860274173536, -2.866191583901042e-16
1.0000000000000002, 8.5078035191952583, 4.695096844520958e-17
1.0232556637891326, -6.889122439895333, 6.308248185135524e-12
1.0232556637891326, -6.6308781983931295, -3.656128337230774e-11
1.0232556637891326, -5.7444600786594071, 6.854297224755947e-09
1.0232556637891326, -5.4722257059493433, -3.196391422034172e-08
1.0232556637891326, -4.778531589629984, 9.794850331697290e-07
1.0232556637891326, -4.492955302520012, -3.734699645075400e-06
1.0232556637891326, -3.9000657171980104, .00004112833770087549
1.0232556637891326, -3.6008736241715487, -.00012839160713706921
1.0232556637891326, -3.0737971753281941, .00069786159471500167
1.0232556637891326, -2.7602450476307019, -.0017738413221425331
1.0232556637891326, -2.2810194402529889, .0056353953301679915
1.0232556637891326, -1.9519803457163336, -.011542089974620421
1.0232556637891326, -1.5098833077967408, .023776651966877078
1.0232556637891326, -1.1638291005549648, -.038650001400954766
1.0232556637891326, -.7518426007038963, .055338443787807473
1.0232556637891326, -.38676060450055738, -.069950660442494123
1.0232556637891326, 0, .073116568169124901
1.0232556637891326, .38676060450055738, -.069950660442494123
1.0232556637891326, .7518426007038963, .055338443787807473
1.0232556637891326, 1.1638291005549648, -.038650001400954766
1.0232556637891326, 1.5098833077967408, .023776651966877078
1.0232556637891326, 1.9519803457163336, -.011542089974620421
1.0232556637891326, 2.2810194402529889, .0056353953301679915
1.0232556637891326, 2.7602450476307019, -.0017738413221425331
1.0232556637891326, 3.0737971753281941, .00069786159471500167
1.0232556637891326, 3.6008736241715487, -.00012839160713706921
1.0232556637891326, 3.9000657171980104, .00004112833770087549
1.0232556637891326, 4.492955302520012, -3.734699645075400e-06
1.0232556637891326, 4.778531589629984, 9.794850331697290e-07
1.0232556637891326, 5.4722257059493433, -3.196391422034172e-08
1.0232556637891326, 5.7444600786594071, 6.854297224755947e-09
1.0232556637891326, 6.6308781983931295, -3.656128337230774e-11
1.0232556637891326, 6.889122439895333, 6.308248185135524e-12
1.0429453488027509, -3.3242574335521193, .00041337086699527292
1.0429453488027509, -2.8569700138728056, -.0018207662105294837
1.0429453488027509, -1.8891758777537109, .014332651745314555
1.0429453488027509, -1.3556261799742659, -.035918411719070557
1.0429453488027509, -.61670659019259422, .066123644379690261
1.0429453488027509, 0, -.086260978124800117
1.0429453488027509, .61670659019259422, .066123644379690261
1.0429453488027509, 1.3556261799742659, -.035918411719070557
1.0429453488027509, 1.8891758777537109, .014332651745314555
1.0429453488027509, 2.8569700138728056, -.0018207662105294837
1.0429453488027509, 3.3242574335521193, .00041337086699527292
1.0983955180915013, -4.1445471861258945, .00001809550132167361
1.0983955180915013, -3.7504397177257425, -.00008809874773724443
1.0983955180915013, -2.8024858612875416, .0015482382731897488
1.0983955180915013, -2.3667594107345415, -.0049422178116220739
1.0983955180915013, -1.6365190424351082, .018838730191077093
1.0983955180915013, -1.1544053947399682, -.038584265926022633
1.0983955180915013, -.53907981135137517, .059937587981167759
1.0983955180915013, 0, -.073456138922748673
1.0983955180915013, .53907981135137517, .059937587981167759
1.0983955180915013, 1.1544053947399682, -.038584265926022633
1.0983955180915013, 1.6365190424351082, .018838730191077093
1.0983955180915013, 2.3667594107345415, -.0049422178116220739
1.0983955180915013, 2.8024858612875416, .0015482382731897488
1.0983955180915013, 3.7504397177257425, -.00008809874773724443
1.0983955180915013, 4.1445471861258945, .00001809550132167361
1.1544053947399682, -7.3825790240304316, 1.796800937541339e-13
1.1544053947399682, -7.1394648491464796, -1.060525333889613e-12
1.1544053947399682, -6.2628911565132519, 2.930393272061044e-10
1.1544053947399682, -6.0077459113595975, -1.418044664753512e-09
1.1544053947399682, -5.3205363773360386, 6.080447230334260e-08
1.1544053947399682, -5.0540726854427405, -2.452984088321636e-07
1.1544053947399682, -4.4658726268310316, 3.686165961864056e-06
1.1544053947399682, -4.1880202316294044, -.00001243813126969029
1.1544053947399682, -3.6644165474506383, .00009088712962125612
1.1544053947399682, -3.3747365357780907, -.00025584759604086501
1.1544053947399682, -2.8980512765157536, .0010822916958536288
1.1544053947399682, -2.5958336889112403, -.0025252596704521965
1.1544053947399682, -2.1555027613169351, .0068835369702398503
1.1544053947399682, -1.8397799215086457, -.013181953885862231
1.1544053947399682, -1.4288766760783731, .024877639500252017
1.1544053947399682, -1.0983955180915013, -.038584265926022633
1.1544053947399682, -.71208504404237993, .053053226219692225
1.1544053947399682, -.36524575550769767, -.06550157737534458
1.1544053947399682, 0, .068140521046388111
1.1544053947399682, .36524575550769767, -.06550157737534458
1.1544053947399682, .71208504404237993, .053053226219692225
1.1544053947399682, 1.0983955180915013, -.038584265926022633
1.1544053947399682, 1.4288766760783731, .024877639500252017
1.1544053947399682, 1.8397799215086457, -.013181953885862231
1.1544053947399682, 2.1555027613169351, .0068835369702398503
1.1544053947399682, 2.5958336889112403, -.0025252596704521965
1.1544053947399682, 2.8980512765157536, .0010822916958536288
1.1544053947399682, 3.3747365357780907, -.00025584759604086501
1.1544053947399682, 3.6644165474506383, .00009088712962125612
1.1544053947399682, 4.1880202316294044, -.00001243813126969029
1.1544053947399682, 4.4658726268310316, 3.686165961864056e-06
1.1544053947399682, 5.0540726854427405, -2.452984088321636e-07
1.1544053947399682, 5.3205363773360386, 6.080447230334260e-08
1.1544053947399682, 6.0077459113595975, -1.418044664753512e-09
1.1544053947399682, 6.2628911565132519, 2.930393272061044e-10
1.1544053947399682, 7.1394648491464796, -1.060525333889613e-12
1.1544053947399682, 7.3825790240304316, 1.796800937541339e-13
1.1638291005549648, -4.8594628283323127, 6.825417230425355e-07
1.1638291005549648, -4.5127458633997826, -3.538204577933139e-06
1.1638291005549648, -3.5818234835519269, .00012003171816878856
1.1638291005549648, -3.2054290028564703, -.00044162809817627045
1.1638291005549648, -2.4843258416389546, .0030260965571907426
1.1638291005549648, -2.0768479786778302, -.0079036826207790848
1.1638291005549648, -1.4659890943911582, .021452269064168448
1.1638291005549648, -1.0232556637891326, -.038650001400954766
1.1638291005549648, -.48493570751549764, .054570106494223565
1.1638291005549648, 0, -.064340672101973084
1.1638291005549648, .48493570751549764, .054570106494223565
1.1638291005549648, 1.0232556637891326, -.038650001400954766
1.1638291005549648, 1.4659890943911582, .021452269064168448
1.1638291005549648, 2.0768479786778302, -.0079036826207790848
1.1638291005549648, 2.4843258416389546, .0030260965571907426
1.1638291005549648, 3.2054290028564703, -.00044162809817627045
1.1638291005549648, 3.5818234835519269, .00012003171816878856
1.1638291005549648, 4.5127458633997826, -3.538204577933139e-06
1.1638291005549648, 4.8594628283323127, 6.825417230425355e-07
1.2426889554854643, -5.500901704467748, 2.311137875100553e-08
1.2426889554854643, -5.1880012243748714, -1.251441741375531e-07
1.2426889554854643, -4.2718258479322815, 7.453296083086113e-06
1.2426889554854643, -3.9361666071299775, -.00003014978452962151
1.2426889554854643, -3.2237098287700974, .00033950425527960694
1.2426889554854643, -2.8651231606436447, -.0010354839937859156
1.2426889554854643, -2.2594644510007993, .0044863965186892115
1.2426889554854643, -1.8760350201548459, -.010190878887624485
1.2426889554854643, -1.3403751971516167, .022645173609619595
1.2426889554854643, -.92886899738106388, -.03732519444903333
1.2426889554854643, -.44440300194413901, .049563119130206543
1.2426889554854643, 0, -.056919675324218606
1.2426889554854643, .44440300194413901, .049563119130206543
1.2426889554854643, .92886899738106388, -.03732519444903333
1.2426889554854643, 1.3403751971516167, .022645173609619595
1.2426889554854643, 1.8760350201548459, -.010190878887624485
1.2426889554854643, 2.2594644510007993, .0044863965186892115
1.2426889554854643, 2.8651231606436447, -.0010354839937859156
1.2426889554854643, 3.2237098287700974, .00033950425527960694
1.2426889554854643, 3.9361666071299775, -.00003014978452962151
1.2426889554854643, 4.2718258479322815, 7.453296083086113e-06
1.2426889554854643, 5.1880012243748714, -1.251441741375531e-07
1.2426889554854643, 5.500901704467748, 2.311137875100553e-08
1.2473119756167892, 0, .11488092430395158
1.299876468303979, -1.7320508075688772, .018678897100436818
1.299876468303979, -1.0000000000000002, -.056036691301310428
1.299876468303979, 0, .074715588401747246
1.299876468303979, 1.0000000000000002, -.056036691301310428
1.299876468303979, 1.7320508075688772, .018678897100436818
1.3403751971516167, -6.0874095469012914, 7.154592894599208e-10
1.3403751971516167, -5.8001672523865011, -4.001365475897986e-09
1.3403751971516167, -4.8969363973455646, 3.910780427117948e-07
1.3403751971516167, -4.5913984489365207, -1.694029865631812e-06
1.3403751971516167, -3.8869245750597696, .00002944331282293518
1.3403751971516167, -3.5634443802816347, -.00010011929544577072
1.3403751971516167, -2.9630365798386675, .00065090516717961901
1.3403751971516167, -2.6206899734322149, -.0017298845314052563
1.3403751971516167, -2.0883447457019444, .0056802924005312826
1.3403751971516167, -1.7254183795882394, -.011635227739641377
1.3403751971516167, -1.2426889554854643, .022645173609619595
1.3403751971516167, -.85667949351945005, -.034959275544085955
1.3403751971516167, -.41259045795460181, .044477317739009509
1.3403751971516167, 0, -.050114637761710962
1.3403751971516167, .41259045795460181, .044477317739009509
1.3403751971516167, .85667949351945005, -.034959275544085955
1.3403751971516167, 1.2426889554854643, .022645173609619595
1.3403751971516167, 1.7254183795882394, -.011635227739641377
1.3403751971516167, 2.0883447457019444, .0056802924005312826
1.3403751971516167, 2.6206899734322149, -.0017298845314052563
1.3403751971516167, 2.9630365798386675, .00065090516717961901
1.3403751971516167, 3.5634443802816347, -.00010011929544577072
1.3403751971516167, 3.8869245750597696, .00002944331282293518
1.3403751971516167, 4.5913984489365207, -1.694029865631812e-06
1.3403751971516167, 4.8969363973455646, 3.910780427117948e-07
1.3403751971516167, 5.8001672523865011, -4.001365475897986e-09
1.3403751971516167, 6.0874095469012914, 7.154592894599208e-10
1.3556261799742659, -7.8493828951138225, 4.661354103667302e-15
1.3556261799742659, -7.6190485416797591, -2.793272440309328e-14
1.3556261799742659, -6.7514447187174609, 1.104909570078114e-11
1.3556261799742659, -6.5105901570136551, -5.512062875865731e-11
1.3556261799742659, -5.8293820073044706, 3.221569422716456e-09
1.3556261799742659, -5.5787388058932015, -1.360768049066126e-08
1.3556261799742659, -4.9949639447820253, 2.721218050216594e-07
1.3556261799742659, -4.7345813340460552, -9.776050998933715e-07
1.3556261799742659, -4.2143439816884216, 9.369904456102569e-06
1.3556261799742659, -3.9439673506573163, -.00002860921490109854
1.3556261799742659, -3.4698466904753764, .00015724036700560378
1.3556261799742659, -3.18901481655339, -.00040642184020005858
1.3556261799742659, -2.7505929810523733, .0014301016601284285
1.3556261799742659, -2.4586636111723679, -.0031085826571496536
1.3556261799742659, -2.0491024682571628, .0075400837719539248
1.3556261799742659, -1.745247320814127, -.013659084285327727
1.3556261799742659, -1.3597658232112304, .024071316768782786
1.3556261799742659, -1.0429453488027509, -.035918411719070557
1.3556261799742659, -.67804569244064405, .047820433451874846
1.3556261799742659, -.34696415708135592, -.057915860018228231
1.3556261799742659, 0, .060018279448352772
1.3556261799742659, .34696415708135592, -.057915860018228231
1.3556261799742659, .67804569244064405, .047820433451874846
1.3556261799742659, 1.0429453488027509, -.035918411719070557
1.3556261799742659, 1.3597658232112304, .024071316768782786
1.3556261799742659, 1.745247320814127, -.013659084285327727
1.3556261799742659, 2.0491024682571628, .0075400837719539248
1.3556261799742659, 2.4586636111723679, -.0031085826571496536
1.3556261799742659, 2.7505929810523733, .0014301016601284285
1.3556261799742659, 3.18901481655339, -.00040642184020005858
1.3556261799742659, 3.4698466904753764, .00015724036700560378
1.3556261799742659, 3.9439673506573163, -.00002860921490109854
1.3556261799742659, 4.2143439816884216, 9.369904456102569e-06
1.3556261799742659, 4.7345813340460552, -9.776050998933715e-07
1.3556261799742659, 4.9949639447820253, 2.721218050216594e-07
1.3556261799742659, 5.5787388058932015, -1.360768049066126e-08
1.3556261799742659, 5.8293820073044706, 3.221569422716456e-09
1.3556261799742659, 6.5105901570136551, -5.512062875865731e-11
1.3556261799742659, 6.7514447187174609, 1.104909570078114e-11
1.3556261799742659, 7.6190485416797591, -2.793272440309328e-14
1.3556261799742659, 7.8493828951138225, 4.661354103667302e-15
1.3597658232112304, -2.8569700138728056, .0012202165440483898
1.3597658232112304, -2.3344142183389773, -.0049725887533766111
1.3597658232112304, -1.3556261799742659, .024071316768782786
1.3597658232112304, -.74196378430272591, -.049223554059833051
1.3597658232112304, 0, .057809219000756987
1.3597658232112304, .74196378430272591, -.049223554059833051
1.3597658232112304, 1.3556261799742659, .024071316768782786
1.3597658232112304, 2.3344142183389773, -.0049725887533766111
1.3597658232112304, 2.8569700138728056, .0012202165440483898
1.4288766760783731, -3.7504397177257425, .00005680265864932928
1.4288766760783731, -3.3242574335521193, -.00026478861126234951
1.4288766760783731, -2.3667594107345415, .0031865505303377037
1.4288766760783731, -1.8891758777537109, -.0091809153821963228
1.4288766760783731, -1.1544053947399682, .024877639500252017
1.4288766760783731, -.61670659019259422, -.042356124644613295
1.4288766760783731, 0, .047361671897665852
1.4288766760783731, .61670659019259422, -.042356124644613295
1.4288766760783731, 1.1544053947399682, .024877639500252017
1.4288766760783731, 1.8891758777537109, -.0091809153821963228
1.4288766760783731, 2.3667594107345415, .0031865505303377037
1.4288766760783731, 3.3242574335521193, -.00026478861126234951
1.4288766760783731, 3.7504397177257425, .00005680265864932928
1.4659890943911582, -6.6308781983931295, 2.029294850723288e-11
1.4659890943911582, -6.3639478888298378, -1.163757575706384e-10
1.4659890943911582, -5.4722257059493433, 1.774122802960188e-08
1.4659890943911582, -5.1900935913047821, -8.095719739871419e-08
1.4659890943911582, -4.492955302520012, 2.072905013090963e-06
1.4659890943911582, -4.1962077112690155, -7.644188877318112e-06
1.4659890943911582, -3.6008736241715487, .00007126238556403726
1.4659890943911582, -3.2890824243987664, -.00021235139847485554
1.4659890943911582, -2.7602450476307019, .00098455161553504911
1.4659890943911582, -2.4324368270097581, -.0023527794333150741
1.4659890943911582, -1.9519803457163336, .0064063133434267344
1.4659890943911582, -1.6067100690287301, -.01211465403310283
1.4659890943911582, -1.1638291005549648, .021452269064168448
1.4659890943911582, -.79912906832454811, -.031494852341532632
1.4659890943911582, -.38676060450055738, .038825364414905278
1.4659890943911582, 0, -.0431189780425155
1.4659890943911582, .38676060450055738, .038825364414905278
1.4659890943911582, .79912906832454811, -.031494852341532632
1.4659890943911582, 1.1638291005549648, .021452269064168448
1.4659890943911582, 1.6067100690287301, -.01211465403310283
1.4659890943911582, 1.9519803457163336, .0064063133434267344
1.4659890943911582, 2.4324368270097581, -.0023527794333150741
1.4659890943911582, 2.7602450476307019, .00098455161553504911
1.4659890943911582, 3.2890824243987664, -.00021235139847485554
1.4659890943911582, 3.6008736241715487, .00007126238556403726
1.4659890943911582, 4.1962077112690155, -7.644188877318112e-06
1.4659890943911582, 4.492955302520012, 2.072905013090963e-06
1.4659890943911582, 5.1900935913047821, -8.095719739871419e-08
1.4659890943911582, 5.4722257059493433, 1.774122802960188e-08
1.4659890943911582, 6.3639478888298378, -1.163757575706384e-10
1.4659890943911582, 6.6308781983931295, 2.029294850723288e-11
1.5098833077967408, -4.5127458633997826, 2.176627575362761e-06
1.5098833077967408, -4.1445471861258945, -.00001096937352330923
1.5098833077967408, -3.2054290028564703, .00027168013476117531
1.5098833077967408, -2.8024858612875416, -.00093853182731999045
1.5098833077967408, -2.0768479786778302, .0048621760444820319
1.5098833077967408, -1.6365190424351082, -.011419913960784085
1.5098833077967408, -1.0232556637891326, .023776651966877078
1.5098833077967408, -.53907981135137517, -.036333770419731633
1.5098833077967408, 0, .039581001615326739
1.5098833077967408, .53907981135137517, -.036333770419731633
1.5098833077967408, 1.0232556637891326, .023776651966877078
1.5098833077967408, 1.6365190424351082, -.011419913960784085
1.5098833077967408, 2.0768479786778302, .0048621760444820319
1.5098833077967408, 2.8024858612875416, -.00093853182731999045
1.5098833077967408, 3.2054290028564703, .00027168013476117531
1.5098833077967408, 4.1445471861258945, -.00001096937352330923
1.5098833077967408, 4.5127458633997826, 2.176627575362761e-06
1.5934804298164202, -1.0000000000000002, .036034682008589204
1.5934804298164202, 0, -.072069364017178408
1.5934804298164202, 1.0000000000000002, .036034682008589204
1.6067100690287301, -5.1880012243748714, 7.262379028097055e-08
1.6067100690287301, -4.8594628283323127, -3.854490549733709e-07
1.6067100690287301, -3.9361666071299775, .00001749655262648486
1.6067100690287301, -3.5818234835519269, -.00006778503170289895
1.6067100690287301, -2.8651231606436447, .00060091309021986675
1.6067100690287301, -2.4843258416389546, -.0017089153949855361
1.6067100690287301, -1.8760350201548459, .005913980864184095
1.6067100690287301, -1.4659890943911582, -.01211465403310283
1.6067100690287301, -.92886899738106388, .021660593571727605
1.6067100690287301, -.48493570751549764, -.030817157791075959
1.6067100690287301, 0, .033031681994747729
1.6067100690287301, .48493570751549764, -.030817157791075959
1.6067100690287301, .92886899738106388, .021660593571727605
1.6067100690287301, 1.4659890943911582, -.01211465403310283
1.6067100690287301, 1.8760350201548459, .005913980864184095
1.6067100690287301, 2.4843258416389546, -.0017089153949855361
1.6067100690287301, 2.8651231606436447, .00060091309021986675
1.6067100690287301, 3.5818234835519269, -.00006778503170289895
1.6067100690287301, 3.9361666071299775, .00001749655262648486
1.6067100690287301, 4.8594628283323127, -3.854490549733709e-07
1.6067100690287301, 5.1880012243748714, 7.262379028097055e-08
1.6365190424351082, -7.1394648491464796, 5.178004594995764e-13
1.6365190424351082, -6.889122439895333, -3.029848425164210e-12
1.6365190424351082, -6.0077459113595975, 6.923589239563781e-10
1.6365190424351082, -5.7444600786594071, -3.292115503789117e-09
1.6365190424351082, -5.0540726854427405, 1.197667087706081e-07
1.6365190424351082, -4.778531589629984, -4.704461679573980e-07
1.6365190424351082, -4.1880202316294044, 6.072905456336839e-06
1.6365190424351082, -3.9000657171980104, -.00001975391987687661
1.6365190424351082, -3.3747365357780907, .000124917339132241
1.6365190424351082, -3.0737971753281941, -.00033518257235220161
1.6365190424351082, -2.5958336889112403, .0012329555701608525
1.6365190424351082, -2.2810194402529889, -.0027066775379130732
1.6365190424351082, -1.8397799215086457, .0064360761229228201
1.6365190424351082, -1.5098833077967408, -.011419913960784085
1.6365190424351082, -1.0983955180915013, .018838730191077093
1.6365190424351082, -.7518426007038963, -.026579026671241308
1.6365190424351082, -.36524575550769767, .031981081242544625
1.6365190424351082, 0, -.035117850854797239
1.6365190424351082, .36524575550769767, .031981081242544625
1.6365190424351082, .7518426007038963, -.026579026671241308
1.6365190424351082, 1.0983955180915013, .018838730191077093
1.6365190424351082, 1.5098833077967408, -.011419913960784085
1.6365190424351082, 1.8397799215086457, .0064360761229228201
1.6365190424351082, 2.2810194402529889, -.0027066775379130732
1.6365190424351082, 2.5958336889112403, .0012329555701608525
1.6365190424351082, 3.0737971753281941, -.00033518257235220161
1.6365190424351082, 3.3747365357780907, .000124917339132241
1.6365190424351082, 3.9000657171980104, -.00001975391987687661
1.6365190424351082, 4.1880202316294044, 6.072905456336839e-06
1.6365190424351082, 4.778531589629984, -4.704461679573980e-07
1.6365190424351082, 5.0540726854427405, 1.197667087706081e-07
1.6365190424351082, 5.7444600786594071, -3.292115503789117e-09
1.6365190424351082, 6.0077459113595975, 6.923589239563781e-10
1.6365190424351082, 6.889122439895333, -3.029848425164210e-12
1.6365190424351082, 7.1394648491464796, 5.178004594995764e-13
1.6641248391179071, -2.3344142183389773, .0030826882240616526
1.6641248391179071, -1.7320508075688772, -.011199385238148315
1.6641248391179071, -.74196378430272591, .030515467490383273
1.6641248391179071, 0, -.044797540952593237
1.6641248391179071, .74196378430272591, .030515467490383273
1.6641248391179071, 1.7320508075688772, -.011199385238148315
1.6641248391179071, 2.3344142183389773, .0030826882240616526
1.7254183795882394, -5.8001672523865011, 2.155475876777419e-09
1.7254183795882394, -5.500901704467748, -1.187476677285562e-08
1.7254183795882394, -4.5913984489365207, 9.125486116937137e-07
1.7254183795882394, -4.2718258479322815, -3.829548796254106e-06
1.7254183795882394, -3.5634443802816347, .00005393277055875014
1.7254183795882394, -3.2237098287700974, -.00017443934839508291
1.7254183795882394, -2.6206899734322149, .00093186298515199751
1.7254183795882394, -2.2594644510007993, -.0023051377801364577
1.7254183795882394, -1.7254183795882394, .0062677235720339005
1.7254183795882394, -1.3403751971516167, -.011635227739641377
1.7254183795882394, -.85667949351945005, .018832040102005718
1.7254183795882394, -.44440300194413901, -.02546583163848911
1.7254183795882394, 0, .026996007592774235
1.7254183795882394, .44440300194413901, -.02546583163848911
1.7254183795882394, .85667949351945005, .018832040102005718
1.7254183795882394, 1.3403751971516167, -.011635227739641377
1.7254183795882394, 1.7254183795882394, .0062677235720339005
1.7254183795882394, 2.2594644510007993, -.0023051377801364577
1.7254183795882394, 2.6206899734322149, .00093186298515199751
1.7254183795882394, 3.2237098287700974, -.00017443934839508291
1.7254183795882394, 3.5634443802816347, .00005393277055875014
1.7254183795882394, 4.2718258479322815, -3.829548796254106e-06
1.7254183795882394, 4.5913984489365207, 9.125486116937137e-07
1.7254183795882394, 5.500901704467748, -1.187476677285562e-08
1.7254183795882394, 5.8001672523865011, 2.155475876777419e-09
1.7320508075688772, -8.2933860274173536, 9.553971946336812e-17
1.7320508075688772, -8.0740299840217116, -5.799101079795238e-16
1.7320508075688772, -7.2146594350518622, 3.204892185946319e-13
1.7320508075688772, -6.9859804240188152, -1.640229830391002e-12
1.7320508075688772, -6.3103498544483996, 1.278481477066651e-10
1.7320508075688772, -6.0730749511228979, -5.610856932430352e-10
1.7320508075688772, -5.4934739864717947, 1.462510413976953e-08
1.7320508075688772, -5.2477244337144251, -5.533089583023340e-08
1.7320508075688772, -4.7307241974514733, 6.816628741653591e-07
1.7320508075688772, -4.4763619773108685, -2.224329521134786e-06
1.7320508075688772, -4.0047753217333044, .00001556803101505216
1.7320508075688772, -3.7414963502665177, -.00004371388387599403
1.7320508075688772, -3.3050400217529652, .00019460477291631024
1.7320508075688772, -3.0324042278316763, -.00046812684126286847
1.7320508075688772, -2.624323634059182, .0014299463985776107
1.7320508075688772, -2.341759996287708, -.0029281788134676288
1.7320508075688772, -1.9573275529334242, .0064778639505801584
1.7320508075688772, -1.6641248391179071, -.011199385238148315
1.7320508075688772, -1.299876468303979, .018678897100436818
1.7320508075688772, -.99516242227121554, -.026984382235612565
1.7320508075688772, -.6484711535344958, .034993278262923769
1.7320508075688772, -.33117931571527381, -.0417072660978225
1.7320508075688772, 0, .043084956801473173
1.7320508075688772, .33117931571527381, -.0417072660978225
1.7320508075688772, .6484711535344958, .034993278262923769
1.7320508075688772, .99516242227121554, -.026984382235612565
1.7320508075688772, 1.299876468303979, .018678897100436818
1.7320508075688772, 1.6641248391179071, -.011199385238148315
1.7320508075688772, 1.9573275529334242, .0064778639505801584
1.7320508075688772, 2.341759996287708, -.0029281788134676288
1.7320508075688772, 2.624323634059182, .0014299463985776107
1.7320508075688772, 3.0324042278316763, -.00046812684126286847
1.7320508075688772, 3.3050400217529652, .00019460477291631024
1.7320508075688772, 3.7414963502665177, -.00004371388387599403
1.7320508075688772, 4.0047753217333044, .00001556803101505216
1.7320508075688772, 4.4763619773108685, -2.224329521134786e-06
1.7320508075688772, 4.7307241974514733, 6.816628741653591e-07
1.7320508075688772, 5.2477244337144251, -5.533089583023340e-08
1.7320508075688772, 5.4934739864717947, 1.462510413976953e-08
1.7320508075688772, 6.0730749511228979, -5.610856932430352e-10
1.7320508075688772, 6.3103498544483996, 1.278481477066651e-10
1.7320508075688772, 6.9859804240188152, -1.640229830391002e-12
1.7320508075688772, 7.2146594350518622, 3.204892185946319e-13
1.7320508075688772, 8.0740299840217116, -5.799101079795238e-16
1.7320508075688772, 8.2933860274173536, 9.553971946336812e-17
1.745247320814127, -3.3242574335521193, .00015719702634817771
1.745247320814127, -2.8569700138728056, -.00069240252960000692
1.745247320814127, -1.8891758777537109, .0054504330467808034
1.745247320814127, -1.3556261799742659, -.013659084285327727
1.745247320814127, -.61670659019259422, .02514555595885902
1.745247320814127, 0, -.032803398434120543
1.745247320814127, .61670659019259422, .02514555595885902
1.745247320814127, 1.3556261799742659, -.013659084285327727
1.745247320814127, 1.8891758777537109, .0054504330467808034
1.745247320814127, 2.8569700138728056, -.00069240252960000692
1.745247320814127, 3.3242574335521193, .00015719702634817771
1.8397799215086457, -4.1445471861258945, 6.182158925122496e-06
1.8397799215086457, -3.7504397177257425, -.00003009811388665901
1.8397799215086457, -2.8024858612875416, .00052894113783695962
1.8397799215086457, -2.3667594107345415, -.0016884625305972425
1.8397799215086457, -1.6365190424351082, .0064360761229228201
1.8397799215086457, -1.1544053947399682, -.013181953885862231
1.8397799215086457, -.53907981135137517, .020477116820426411
1.8397799215086457, 0, -.02509560341953037
1.8397799215086457, .53907981135137517, .020477116820426411
1.8397799215086457, 1.1544053947399682, -.013181953885862231
1.8397799215086457, 1.6365190424351082, .0064360761229228201
1.8397799215086457, 2.3667594107345415, -.0016884625305972425
1.8397799215086457, 2.8024858612875416, .00052894113783695962
1.8397799215086457, 3.7504397177257425, -.00003009811388665901
1.8397799215086457, 4.1445471861258945, 6.182158925122496e-06
1.8760350201548459, -6.3639478888298378, 5.681086735511244e-11
1.8760350201548459, -6.0874095469012914, -3.219740812591810e-10
1.8760350201548459, -5.1900935913047821, 3.952067594548915e-08
1.8760350201548459, -4.8969363973455646, -1.759946308025715e-07
1.8760350201548459, -4.1962077112690155, 3.731644883885269e-06
1.8760350201548459, -3.8869245750597696, -.00001325020687417083
1.8760350201548459, -3.2890824243987664, .0001036630599298574
1.8760350201548459, -2.9630365798386675, -.00029292315618364978
1.8760350201548459, -2.4324368270097581, .0011485505494627393
1.8760350201548459, -2.0883447457019444, -.0025562697331460407
1.8760350201548459, -1.6067100690287301, .005913980864184095
1.8760350201548459, -1.2426889554854643, -.010190878887624485
1.8760350201548459, -.79912906832454811, .015374764608149719
1.8760350201548459, -.41259045795460181, -.020015874735095578
1.8760350201548459, 0, .021049285462863398
1.8760350201548459, .41259045795460181, -.020015874735095578
1.8760350201548459, .79912906832454811, .015374764608149719
1.8760350201548459, 1.2426889554854643, -.010190878887624485
1.8760350201548459, 1.6067100690287301, .005913980864184095
1.8760350201548459, 2.0883447457019444, -.0025562697331460407
1.8760350201548459, 2.4324368270097581, .0011485505494627393
1.8760350201548459, 2.9630365798386675, -.00029292315618364978
1.8760350201548459, 3.2890824243987664, .0001036630599298574
1.8760350201548459, 3.8869245750597696, -.00001325020687417083
1.8760350201548459, 4.1962077112690155, 3.731644883885269e-06
1.8760350201548459, 4.8969363973455646, -1.759946308025715e-07
1.8760350201548459, 5.1900935913047821, 3.952067594548915e-08
1.8760350201548459, 6.0874095469012914, -3.219740812591810e-10
1.8760350201548459, 6.3639478888298378, 5.681086735511244e-11
1.8770583699478387, 0, .04337997016764495
1.8891758777537109, -7.6190485416797591, 1.114609449601089e-14
1.8891758777537109, -7.3825790240304316, -6.630965677451408e-14
1.8891758777537109, -6.5105901570136551, 2.199498079591167e-11
1.8891758777537109, -6.2628911565132519, -1.081440731829775e-10
1.8891758777537109, -5.5787388058932015, 5.429921207529545e-09
1.8891758777537109, -5.3205363773360386, -2.243945672861902e-08
1.8891758777537109, -4.7345813340460552, 3.900972445776540e-07
1.8891758777537109, -4.4658726268310316, -1.360353251371111e-06
1.8891758777537109, -3.9439673506573163, .00001141603690863087
1.8891758777537109, -3.6644165474506383, -.00003354124680418367
1.8891758777537109, -3.18901481655339, .00016217595429434138
1.8891758777537109, -2.8980512765157536, -.00039941202936015149
1.8891758777537109, -2.4586636111723679, .0012404288083483065
1.8891758777537109, -2.1555027613169351, -.0025403202121870084
1.8891758777537109, -1.745247320814127, .0054504330467808034
1.8891758777537109, -1.4288766760783731, -.0091809153821963228
1.8891758777537109, -1.0429453488027509, .014332651745314555
1.8891758777537109, -.71208504404237993, -.019578914658305073
1.8891758777537109, -.34696415708135592, .023110371880138696
1.8891758777537109, 0, -.025146773182372042
1.8891758777537109, .34696415708135592, .023110371880138696
1.8891758777537109, .71208504404237993, -.019578914658305073
1.8891758777537109, 1.0429453488027509, .014332651745314555
1.8891758777537109, 1.4288766760783731, -.0091809153821963228
1.8891758777537109, 1.745247320814127, .0054504330467808034
1.8891758777537109, 2.1555027613169351, -.0025403202121870084
1.8891758777537109, 2.4586636111723679, .0012404288083483065
1.8891758777537109, 2.8980512765157536, -.00039941202936015149
1.8891758777537109, 3.18901481655339, .00016217595429434138
1.8891758777537109, 3.6644165474506383, -.00003354124680418367
1.8891758777537109, 3.9439673506573163, .00001141603690863087
1.8891758777537109, 4.4658726268310316, -1.360353251371111e-06
1.8891758777537109, 4.7345813340460552, 3.900972445776540e-07
1.8891758777537109, 5.3205363773360386, -2.243945672861902e-08
1.8891758777537109, 5.5787388058932015, 5.429921207529545e-09
1.8891758777537109, 6.2628911565132519, -1.081440731829775e-10
1.8891758777537109, 6.5105901570136551, 2.199498079591167e-11
1.8891758777537109, 7.3825790240304316, -6.630965677451408e-14
1.8891758777537109, 7.6190485416797591, 1.114609449601089e-14
1.9519803457163336, -4.8594628283323127, 2.038281421276945e-07
1.9519803457163336, -4.5127458633997826, -1.056617700047725e-06
1.9519803457163336, -3.5818234835519269, .00003584519639572936
1.9519803457163336, -3.2054290028564703, -.00013188385665479168
1.9519803457163336, -2.4843258416389546, .00090368635107272819
1.9519803457163336, -2.0768479786778302, -.0023602849322955631
1.9519803457163336, -1.4659890943911582, .0064063133434267344
1.9519803457163336, -1.0232556637891326, -.011542089974620421
1.9519803457163336, -.48493570751549764, .016296327457969703
1.9519803457163336, 0, -.0192141215914724
1.9519803457163336, .48493570751549764, .016296327457969703
1.9519803457163336, 1.0232556637891326, -.011542089974620421
1.9519803457163336, 1.4659890943911582, .0064063133434267344
1.9519803457163336, 2.0768479786778302, -.0023602849322955631
1.9519803457163336, 2.4843258416389546, .00090368635107272819
1.9519803457163336, 3.2054290028564703, -.00013188385665479168
1.9519803457163336, 3.5818234835519269, .00003584519639572936
1.9519803457163336, 4.5127458633997826, -1.056617700047725e-06
1.9519803457163336, 4.8594628283323127, 2.038281421276945e-07
1.9573275529334242, -1.7320508075688772, .0064778639505801584
1.9573275529334242, -1.0000000000000002, -.019433591851740466
1.9573275529334242, 0, .02591145580232062
1.9573275529334242, 1.0000000000000002, -.019433591851740466
1.9573275529334242, 1.7320508075688772, .0064778639505801584
2.0491024682571628, -2.8569700138728056, .00038221984490606693
2.0491024682571628, -2.3344142183389773, -.0015576105006669119
2.0491024682571628, -1.3556261799742659, .0075400837719539248
2.0491024682571628, -.74196378430272591, -.015418754392604497
2.0491024682571628, 0, .018108122552822844
2.0491024682571628, .74196378430272591, -.015418754392604497
2.0491024682571628, 1.3556261799742659, .0075400837719539248
2.0491024682571628, 2.3344142183389773, -.0015576105006669119
2.0491024682571628, 2.8569700138728056, .00038221984490606693
2.0768479786778302, -6.889122439895333, 1.289997147249397e-12
2.0768479786778302, -6.6308781983931295, -7.476552898027829e-12
2.0768479786778302, -5.7444600786594071, 1.401660747459110e-09
2.0768479786778302, -5.4722257059493433, -6.536419771233114e-09
2.0768479786778302, -4.778531589629984, 2.002985395437936e-07
2.0768479786778302, -4.492955302520012, -7.637226289436325e-07
2.0768479786778302, -3.9000657171980104, 8.410486833770538e-06
2.0768479786778302, -3.6008736241715487, -.00002625527754723658
2.0768479786778302, -3.0737971753281941, .00014270831456481871
2.0768479786778302, -2.7602450476307019, -.00036273941323819469
2.0768479786778302, -2.2810194402529889, .0011524029629444747
2.0768479786778302, -1.9519803457163336, -.0023602849322955631
2.0768479786778302, -1.5098833077967408, .0048621760444820319
2.0768479786778302, -1.1638291005549648, -.0079036826207790848
2.0768479786778302, -.7518426007038963, .011316364309778518
2.0768479786778302, -.38676060450055738, -.014304470872223625
2.0768479786778302, 0, .014951879125030151
2.0768479786778302, .38676060450055738, -.014304470872223625
2.0768479786778302, .7518426007038963, .011316364309778518
2.0768479786778302, 1.1638291005549648, -.0079036826207790848
2.0768479786778302, 1.5098833077967408, .0048621760444820319
2.0768479786778302, 1.9519803457163336, -.0023602849322955631
2.0768479786778302, 2.2810194402529889, .0011524029629444747
2.0768479786778302, 2.7602450476307019, -.00036273941323819469
2.0768479786778302, 3.0737971753281941, .00014270831456481871
2.0768479786778302, 3.6008736241715487, -.00002625527754723658
2.0768479786778302, 3.9000657171980104, 8.410486833770538e-06
2.0768479786778302, 4.492955302520012, -7.637226289436325e-07
2.0768479786778302, 4.778531589629984, 2.002985395437936e-07
2.0768479786778302, 5.4722257059493433, -6.536419771233114e-09
2.0768479786778302, 5.7444600786594071, 1.401660747459110e-09
2.0768479786778302, 6.6308781983931295, -7.476552898027829e-12
2.0768479786778302, 6.889122439895333, 1.289997147249397e-12
2.0883447457019444, -5.500901704467748, 5.797234825763042e-09
2.0883447457019444, -5.1880012243748714, -3.139103782460458e-08
2.0883447457019444, -4.2718258479322815, 1.869577236611648e-06
2.0883447457019444, -3.9361666071299775, -7.562741398834505e-06
2.0883447457019444, -3.2237098287700974, .00008516090335441591
2.0883447457019444, -2.8651231606436447, -.00025973975568353895
2.0883447457019444, -2.2594644510007993, .0011253631564146979
2.0883447457019444, -1.8760350201548459, -.0025562697331460407
2.0883447457019444, -1.3403751971516167, .0056802924005312826
2.0883447457019444, -.92886899738106388, -.0093626139517487238
2.0883447457019444, -.44440300194413901, .012432362577354875
2.0883447457019444, 0, -.014277673678223489
2.0883447457019444, .44440300194413901, .012432362577354875
2.0883447457019444, .92886899738106388, -.0093626139517487238
2.0883447457019444, 1.3403751971516167, .0056802924005312826
2.0883447457019444, 1.8760350201548459, -.0025562697331460407
2.0883447457019444, 2.2594644510007993, .0011253631564146979
2.0883447457019444, 2.8651231606436447, -.00025973975568353895
2.0883447457019444, 3.2237098287700974, .00008516090335441591
2.0883447457019444, 3.9361666071299775, -7.562741398834505e-06
2.0883447457019444, 4.2718258479322815, 1.869577236611648e-06
2.0883447457019444, 5.1880012243748714, -3.139103782460458e-08
2.0883447457019444, 5.500901704467748, 5.797234825763042e-09
2.1555027613169351, -3.7504397177257425, .00001571705389559213
2.1555027613169351, -3.3242574335521193, -.00007326588179334244
2.1555027613169351, -2.3667594107345415, .0008817049697538538
2.1555027613169351, -1.8891758777537109, -.0025403202121870084
2.1555027613169351, -1.1544053947399682, .0068835369702398503
2.1555027613169351, -.61670659019259422, -.011719759421078889
2.1555027613169351, 0, .01310477304233989
2.1555027613169351, .61670659019259422, -.011719759421078889
2.1555027613169351, 1.1544053947399682, .0068835369702398503
2.1555027613169351, 1.8891758777537109, -.0025403202121870084
2.1555027613169351, 2.3667594107345415, .0008817049697538538
2.1555027613169351, 3.3242574335521193, -.00007326588179334244
2.1555027613169351, 3.7504397177257425, .00001571705389559213
2.2404678516917524, -1.0000000000000002, .010563172204483509
2.2404678516917524, 0, -.021126344408967018
2.2404678516917524, 1.0000000000000002, .010563172204483509
2.2594644510007993, -6.0874095469012914, 1.417447320489218e-10
2.2594644510007993, -5.8001672523865011, -7.927389937715509e-10
2.2594644510007993, -4.8969363973455646, 7.747925450271962e-08
2.2594644510007993, -4.5913984489365207, -3.356163137781208e-07
2.2594644510007993, -3.8869245750597696, 5.833224263353873e-06
2.2594644510007993, -3.5634443802816347, -.0000198353462104046
2.2594644510007993, -2.9630365798386675, .00012895545542609407
2.2594644510007993, -2.6206899734322149, -.00034271973680670008
2.2594644510007993, -2.0883447457019444, .0011253631564146979
2.2594644510007993, -1.7254183795882394, -.0023051377801364577
2.2594644510007993, -1.2426889554854643, .0044863965186892115
2.2594644510007993, -.85667949351945005, -.0069260308973855007
2.2594644510007993, -.41259045795460181, .0088117179803894712
2.2594644510007993, 0, -.0099285675731804537
2.2594644510007993, .41259045795460181, .0088117179803894712
2.2594644510007993, .85667949351945005, -.0069260308973855007
2.2594644510007993, 1.2426889554854643, .0044863965186892115
2.2594644510007993, 1.7254183795882394, -.0023051377801364577
2.2594644510007993, 2.0883447457019444, .0011253631564146979
2.2594644510007993, 2.6206899734322149, -.00034271973680670008
2.2594644510007993, 2.9630365798386675, .00012895545542609407
2.2594644510007993, 3.5634443802816347, -.0000198353462104046
2.2594644510007993, 3.8869245750597696, 5.833224263353873e-06
2.2594644510007993, 4.5913984489365207, -3.356163137781208e-07
2.2594644510007993, 4.8969363973455646, 7.747925450271962e-08
2.2594644510007993, 5.8001672523865011, -7.927389937715509e-10
