-2.8651231606436447, -3.5818234835519269, 5.094452907348356e-06
-2.8651231606436447, -3.2054290028564703, -.00001874382524090077
-2.8651231606436447, -2.4843258416389546, .0001284352722671088
-2.8651231606436447, -2.0768479786778302, -.00033545249139536713
-2.8651231606436447, -1.4659890943911582, .0009104891287942074
-2.8651231606436447, -1.0232556637891326, -.0016404048447363757
-2.8651231606436447, -.48493570751549764, .0023160947949847415
-2.8651231606436447, 0, -.0027307825719008632
-2.8651231606436447, .48493570751549764, .0023160947949847415
-2.8651231606436447, 1.0232556637891326, -.0016404048447363757
-2.8651231606436447, 1.4659890943911582, .0009104891287942074
-2.8651231606436447, 2.0768479786778302, -.00033545249139536713
-2.8651231606436447, 2.4843258416389546, .0001284352722671088
-2.8651231606436447, 3.2054290028564703, -.00001874382524090077
-2.8651231606436447, 3.5818234835519269, 5.094452907348356e-06
-2.8651231606436447, 4.5127458633997826, -1.501704455608783e-07
-2.8651231606436447, 4.8594628283323127, 2.896881522974616e-08
-2.8569700138728056, -6.6308781983931295, 1.686151643134884e-12
-2.8569700138728056, -6.3639478888298378, -9.669722208128549e-12
-2.8569700138728056, -5.4722257059493433, 1.474127861837410e-09
-2.8569700138728056, -5.1900935913047821, -6.726775626951556e-09
-2.8569700138728056, -4.492955302520012, 1.722387553804753e-07
-2.8569700138728056, -4.1962077112690155, -6.351596285443342e-07
-2.8569700138728056, -3.6008736241715487, 5.921228670623470e-06
-2.8569700138728056, -3.2890824243987664, -.00001764438811505132
-2.8569700138728056, -2.7602450476307019, .00008180690566941656
-2.8569700138728056, -2.4324368270097581, -.00019549366648243308
-2.8569700138728056, -1.9519803457163336, .00053230390677854583
-2.8569700138728056, -1.6067100690287301, -.0010066129028340203
-2.8569700138728056, -1.1638291005549648, .0017824801910193979
-2.8569700138728056, -.79912906832454811, -.0026169236573501337
-2.8569700138728056, -.38676060450055738, .0032260197171529691
-2.8569700138728056, 0, -.0035827783060096317
-2.8569700138728056, .38676060450055738, .0032260197171529691
-2.8569700138728056, .79912906832454811, -.0026169236573501337
-2.8569700138728056, 1.1638291005549648, .0017824801910193979
-2.8569700138728056, 1.6067100690287301, -.0010066129028340203
-2.8569700138728056, 1.9519803457163336, .00053230390677854583
-2.8569700138728056, 2.4324368270097581, -.00019549366648243308
-2.8569700138728056, 2.7602450476307019, .00008180690566941656
-2.8569700138728056, 3.2890824243987664, -.00001764438811505132
-2.8569700138728056, 3.6008736241715487, 5.921228670623470e-06
-2.8569700138728056, 4.1962077112690155, -6.351596285443342e-07
-2.8569700138728056, 4.492955302520012, 1.722387553804753e-07
-2.8569700138728056, 5.1900935913047821, -6.726775626951556e-09
-2.8569700138728056, 5.4722257059493433, 1.474127861837410e-09
-2.8569700138728056, 6.3639478888298378, -9.669722208128549e-12
-2.8569700138728056, 6.6308781983931295, 1.686151643134884e-12
-2.8024858612875416, -5.8001672523865011, 2.623311664537778e-10
-2.8024858612875416, -5.500901704467748, -1.445212842533451e-09
-2.8024858612875416, -4.5913984489365207, 1.110612947843756e-07
-2.8024858612875416, -4.2718258479322815, -4.660734149411865e-07
-2.8024858612875416, -3.5634443802816347, 6.563862190800049e-06
-2.8024858612875416, -3.2237098287700974, -.00002123005793427603
-2.8024858612875416, -2.6206899734322149, .0001134119414203336
-2.8024858612875416, -2.2594644510007993, -.00028054569722392344
-2.8024858612875416, -1.7254183795882394, .00076281031644840724
-2.8024858612875416, -1.3403751971516167, -.0014160598584192188
-2.8024858612875416, -.85667949351945005, .0022919444842265904
-2.8024858612875416, -.44440300194413901, -.0030993069281889307
-2.8024858612875416, 0, .0032855362649641022
-2.8024858612875416, .44440300194413901, -.0030993069281889307
-2.8024858612875416, .85667949351945005, .0022919444842265904
-2.8024858612875416, 1.3403751971516167, -.0014160598584192188
-2.8024858612875416, 1.7254183795882394, .00076281031644840724
-2.8024858612875416, 2.2594644510007993, -.00028054569722392344
-2.8024858612875416, 2.6206899734322149, .0001134119414203336
-2.8024858612875416, 3.2237098287700974, -.00002123005793427603
-2.8024858612875416, 3.5634443802816347, 6.563862190800049e-06
-2.8024858612875416, 4.2718258479322815, -4.660734149411865e-07
-2.8024858612875416, 4.5913984489365207, 1.110612947843756e-07
-2.8024858612875416, 5.500901704467748, -1.445212842533451e-09
-2.8024858612875416, 5.8001672523865011, 2.623311664537778e-10
-2.7602450476307019, -2.8569700138728056, .00008180690566941656
-2.7602450476307019, -2.3344142183389773, -.00033337697400056735
-2.7602450476307019, -1.3556261799742659, .0016138118679403567
-2.7602450476307019, -.74196378430272591, -.0033000918265918043
-2.7602450476307019, 0, .0038757000539651975
-2.7602450476307019, .74196378430272591, -.0033000918265918043
-2.7602450476307019, 1.3556261799742659, .0016138118679403567
-2.7602450476307019, 2.3344142183389773, -.00033337697400056735
-2.7602450476307019, 2.8569700138728056, .00008180690566941656
-2.6206899734322149, -4.1445471861258945, 1.325536237802137e-06
-2.6206899734322149, -3.7504397177257425, -6.453431742774508e-06
-2.6206899734322149, -2.8024858612875416, .0001134119414203336
-2.6206899734322149, -2.3667594107345415, -.00036202858865091336
-2.6206899734322149, -1.6365190424351082, .0013799794268501821
-2.6206899734322149, -1.1544053947399682, -.0028263844026625152
-2.6206899734322149, -.53907981135137517, .0043905633484899557
-2.6206899734322149, 0, -.0053808276598841407
-2.6206899734322149, .53907981135137517, .0043905633484899557
-2.6206899734322149, 1.1544053947399682, -.0028263844026625152
-2.6206899734322149, 1.6365190424351082, .0013799794268501821
-2.6206899734322149, 2.3667594107345415, -.00036202858865091336
-2.6206899734322149, 2.8024858612875416, .0001134119414203336
-2.6206899734322149, 3.7504397177257425, -6.453431742774508e-06
-2.6206899734322149, 4.1445471861258945, 1.325536237802137e-06
-2.5958336889112403, -1.7320508075688772, .0017527529586568935
-2.5958336889112403, -1.0000000000000002, -.005258258875970678
-2.5958336889112403, 0, .0070110118346275703
-2.5958336889112403, 1.0000000000000002, -.005258258875970678
-2.5958336889112403, 1.7320508075688772, .0017527529586568935
-2.4843258416389546, -5.1880012243748714, 1.552213860808567e-08
-2.4843258416389546, -4.8594628283323127, -8.238338476283036e-08
-2.4843258416389546, -3.9361666071299775, 3.739599847119601e-06
-2.4843258416389546, -3.5818234835519269, -.00001448793368640216
-2.4843258416389546, -2.8651231606436447, .0001284352722671088
-2.4843258416389546, -2.4843258416389546, -.0003652525092374243
-2.4843258416389546, -1.8760350201548459, .0012640159697570252
-2.4843258416389546, -1.4659890943911582, -.0025893076960498344
-2.4843258416389546, -.92886899738106388, .0046295949915721221
-2.4843258416389546, -.48493570751549764, -.0065866597280267369
-2.4843258416389546, 0, .0070599777896063563
-2.4843258416389546, .48493570751549764, -.0065866597280267369
-2.4843258416389546, .92886899738106388, .0046295949915721221
-2.4843258416389546, 1.4659890943911582, -.0025893076960498344
-2.4843258416389546, 1.8760350201548459, .0012640159697570252
-2.4843258416389546, 2.4843258416389546, -.0003652525092374243
-2.4843258416389546, 2.8651231606436447, .0001284352722671088
-2.4843258416389546, 3.5818234835519269, -.00001448793368640216
-2.4843258416389546, 3.9361666071299775, 3.739599847119601e-06
-2.4843258416389546, 4.8594628283323127, -8.238338476283036e-08
-2.4843258416389546, 5.1880012243748714, 1.552213860808567e-08
-2.4586636111723679, 0, .013997837447101048
-2.4324368270097581, -3.3242574335521193, .00004438317557663151
-2.4324368270097581, -2.8569700138728056, -.00019549366648243308
-2.4324368270097581, -1.8891758777537109, .0015388810622164245
-2.4324368270097581, -1.3556261799742659, -.0038565203816830116
-2.4324368270097581, -.61670659019259422, .0070996230082757544
-2.4324368270097581, 0, -.0092617463958067341
-2.4324368270097581, .61670659019259422, .0070996230082757544
-2.4324368270097581, 1.3556261799742659, -.0038565203816830116
-2.4324368270097581, 1.8891758777537109, .0015388810622164245
-2.4324368270097581, 2.8569700138728056, -.00019549366648243308
-2.4324368270097581, 3.3242574335521193, .00004438317557663151
-2.3667594107345415, -6.0874095469012914, 1.497306392987690e-10
-2.3667594107345415, -5.8001672523865011, -8.374019592735901e-10
-2.3667594107345415, -4.8969363973455646, 8.184444064616283e-08
-2.3667594107345415, -4.5913984489365207, -3.545249583155603e-07
-2.3667594107345415, -3.8869245750597696, 6.161868490630158e-06
-2.3667594107345415, -3.5634443802816347, -.00002095287088179928
-2.3667594107345415, -2.9630365798386675, .00013622081401479388
-2.3667594107345415, -2.6206899734322149, -.00036202858865091336
-2.3667594107345415, -2.0883447457019444, .0011887661884682718
-2.3667594107345415, -1.7254183795882394, -.0024350093897842488
-2.3667594107345415, -1.2426889554854643, .0047391603848759532
-2.3667594107345415, -.85667949351945005, -.0073162439201665264
-2.3667594107345415, -.41259045795460181, .0093081707337723165
-2.3667594107345415, 0, -.010487943703898975
-2.3667594107345415, .41259045795460181, .0093081707337723165
-2.3667594107345415, .85667949351945005, -.0073162439201665264
-2.3667594107345415, 1.2426889554854643, .0047391603848759532
-2.3667594107345415, 1.7254183795882394, -.0024350093897842488
-2.3667594107345415, 2.0883447457019444, .0011887661884682718
-2.3667594107345415, 2.6206899734322149, -.00036202858865091336
-2.3667594107345415, 2.9630365798386675, .00013622081401479388
-2.3667594107345415, 3.5634443802816347, -.00002095287088179928
-2.3667594107345415, 3.8869245750597696, 6.161868490630158e-06
-2.3667594107345415, 4.5913984489365207, -3.545249583155603e-07
-2.3667594107345415, 4.8969363973455646, 8.184444064616283e-08
-2.3667594107345415, 5.8001672523865011, -8.374019592735901e-10
-2.3667594107345415, 6.0874095469012914, 1.497306392987690e-10
-2.3344142183389773, -6.889122439895333, 1.185576559161963e-12
-2.3344142183389773, -6.6308781983931295, -6.871353070924692e-12
-2.3344142183389773, -5.7444600786594071, 1.288201396125788e-09
-2.3344142183389773, -5.4722257059493433, -6.007320309304974e-09
-2.3344142183389773, -4.778531589629984, 1.840850995863380e-07
-2.3344142183389773, -4.492955302520012, -7.019020534330439e-07
-2.3344142183389773, -3.9000657171980104, 7.729688443513206e-06
-2.3344142183389773, -3.6008736241715487, -.00002413000810169787
-2.3344142183389773, -3.0737971753281941, .00013115659434311197
-2.3344142183389773, -2.7602450476307019, -.00033337697400056735
-2.3344142183389773, -2.2810194402529889, .0010591201247917336
-2.3344142183389773, -1.9519803457163336, -.0021692284317368351
-2.3344142183389773, -1.5098833077967408, .0044686005369454322
-2.3344142183389773, -1.1638291005549648, -.0072639081925348452
-2.3344142183389773, -.7518426007038963, .010400345682327811
-2.3344142183389773, -.38676060450055738, -.013146575861415216
-2.3344142183389773, 0, .013741578765392202
-2.3344142183389773, .38676060450055738, -.013146575861415216
-2.3344142183389773, .7518426007038963, .010400345682327811
-2.3344142183389773, 1.1638291005549648, -.0072639081925348452
-2.3344142183389773, 1.5098833077967408, .0044686005369454322
-2.3344142183389773, 1.9519803457163336, -.0021692284317368351
-2.3344142183389773, 2.2810194402529889, .0010591201247917336
-2.3344142183389773, 2.7602450476307019, -.00033337697400056735
-2.3344142183389773, 3.0737971753281941, .00013115659434311197
-2.3344142183389773, 3.6008736241715487, -.00002413000810169787
-2.3344142183389773, 3.9000657171980104, 7.729688443513206e-06
-2.3344142183389773, 4.492955302520012, -7.019020534330439e-07
-2.3344142183389773, 4.778531589629984, 1.840850995863380e-07
-2.3344142183389773, 5.4722257059493433, -6.007320309304974e-09
-2.3344142183389773, 5.7444600786594071, 1.288201396125788e-09
-2.3344142183389773, 6.6308781983931295, -6.871353070924692e-12
-2.3344142183389773, 6.889122439895333, 1.185576559161963e-12
-2.2810194402529889, -2.3344142183389773, .0010591201247917336
-2.2810194402529889, -1.7320508075688772, -.0038477761709518618
-2.2810194402529889, -.74196378430272591, .010484208388063845
-2.2810194402529889, 0, -.015391104683807439
-2.2810194402529889, .74196378430272591, .010484208388063845
-2.2810194402529889, 1.7320508075688772, -.0038477761709518618
-2.2810194402529889, 2.3344142183389773, .0010591201247917336
-2.2594644510007993, -4.5127458633997826, 6.506369661119292e-07
-2.2594644510007993, -4.1445471861258945, -3.278962368270541e-06
-2.2594644510007993, -3.2054290028564703, .00008121055739378437
-2.2594644510007993, -2.8024858612875416, -.00028054569722392344
-2.2594644510007993, -2.0768479786778302, .001453400437489474
-2.2594644510007993, -1.6365190424351082, -.0034136378022618266
-2.2594644510007993, -1.0232556637891326, .0071073108119793461
-2.2594644510007993, -.53907981135137517, -.010860881494328052
-2.2594644510007993, 0, .011831543024706716
-2.2594644510007993, .53907981135137517, -.010860881494328052
-2.2594644510007993, 1.0232556637891326, .0071073108119793461
-2.2594644510007993, 1.6365190424351082, -.0034136378022618266
-2.2594644510007993, 2.0768479786778302, .001453400437489474
-2.2594644510007993, 2.8024858612875416, -.00028054569722392344
-2.2594644510007993, 3.2054290028564703, .00008121055739378437
-2.2594644510007993, 4.1445471861258945, -3.278962368270541e-06
-2.2594644510007993, 4.5127458633997826, 6.506369661119292e-07
-2.1555027613169351, -1.0000000000000002, .014333345515059253
-2.1555027613169351, 0, -.028666691030118506
-2.1555027613169351, 1.0000000000000002, .014333345515059253
-2.0883447457019444, -3.7504397177257425, .00002119065094827519
-2.0883447457019444, -3.3242574335521193, -.00009878134527080331
-2.0883447457019444, -2.3667594107345415, .0011887661884682718
-2.0883447457019444, -1.8891758777537109, -.0034250082280624029
-2.0883447457019444, -1.1544053947399682, .0092807869843093797
-2.0883447457019444, -.61670659019259422, -.015801264838793516
-2.0883447457019444, 0, .017668621176801593
-2.0883447457019444, .61670659019259422, -.015801264838793516
-2.0883447457019444, 1.1544053947399682, .0092807869843093797
-2.0883447457019444, 1.8891758777537109, -.0034250082280624029
-2.0883447457019444, 2.3667594107345415, .0011887661884682718
-2.0883447457019444, 3.3242574335521193, -.00009878134527080331
-2.0883447457019444, 3.7504397177257425, .00002119065094827519
-2.0768479786778302, -5.500901704467748, 7.487097461797778e-09
-2.0768479786778302, -5.1880012243748714, -4.054135578143675e-08
-2.0768479786778302, -4.2718258479322815, 2.414548901946122e-06
-2.0768479786778302, -3.9361666071299775, -9.767239663953751e-06
-2.0768479786778302, -3.2237098287700974, .00010998484665753214
-2.0768479786778302, -2.8651231606436447, -.00033545249139536713
-2.0768479786778302, -2.2594644510007993, .001453400437489474
-2.0768479786778302, -1.8760350201548459, -.0033014085518243766
-2.0768479786778302, -1.3403751971516167, .0073360669513140245
-2.0768479786778302, -.92886899738106388, -.01209176534343747
-2.0768479786778302, -.44440300194413901, .016056329111148557
-2.0768479786778302, 0, -.018439538429864084
-2.0768479786778302, .44440300194413901, .016056329111148557
-2.0768479786778302, .92886899738106388, -.01209176534343747
-2.0768479786778302, 1.3403751971516167, .0073360669513140245
-2.0768479786778302, 1.8760350201548459, -.0033014085518243766
-2.0768479786778302, 2.2594644510007993, .001453400437489474
-2.0768479786778302, 2.8651231606436447, -.00033545249139536713
-2.0768479786778302, 3.2237098287700974, .00010998484665753214
-2.0768479786778302, 3.9361666071299775, -9.767239663953751e-06
-2.0768479786778302, 4.2718258479322815, 2.414548901946122e-06
-2.0768479786778302, 5.1880012243748714, -4.054135578143675e-08
-2.0768479786778302, 5.500901704467748, 7.487097461797778e-09
-1.9519803457163336, -2.8569700138728056, .00053230390677854583
-1.9519803457163336, -2.3344142183389773, -.0021692284317368351
-1.9519803457163336, -1.3556261799742659, .010500804975824739
-1.9519803457163336, -.74196378430272591, -.021473147745270205
-1.9519803457163336, 0, .025218534588807514
-1.9519803457163336, .74196378430272591, -.021473147745270205
-1.9519803457163336, 1.3556261799742659, .010500804975824739
-1.9519803457163336, 2.3344142183389773, -.0021692284317368351
-1.9519803457163336, 2.8569700138728056, .00053230390677854583
-1.8891758777537109, -6.3639478888298378, 7.611782340948508e-11
-1.8891758777537109, -6.0874095469012914, -4.313957417077184e-10
-1.8891758777537109, -5.1900935913047821, 5.295162655832108e-08
-1.8891758777537109, -4.8969363973455646, -2.358057331656303e-07
-1.8891758777537109, -4.1962077112690155, 4.999830129735310e-06
-1.8891758777537109, -3.8869245750597696, -.00001775323901821256
-1.8891758777537109, -3.2890824243987664, .00013889255449147219
-1.8891758777537109, -2.9630365798386675, -.00039247197082143434
-1.8891758777537109, -2.4324368270097581, .0015388810622164245
-1.8891758777537109, -2.0883447457019444, -.0034250082280624029
-1.8891758777537109, -1.6067100690287301, .0079238246487804906
-1.8891758777537109, -1.2426889554854643, -.013654210112774205
-1.8891758777537109, -.79912906832454811, .020599819574841007
-1.8891758777537109, -.41259045795460181, -.026818193233152116
-1.8891758777537109, 0, .028202804645507534
-1.8891758777537109, .41259045795460181, -.026818193233152116
-1.8891758777537109, .79912906832454811, .020599819574841007
-1.8891758777537109, 1.2426889554854643, -.013654210112774205
-1.8891758777537109, 1.6067100690287301, .0079238246487804906
-1.8891758777537109, 2.0883447457019444, -.0034250082280624029
-1.8891758777537109, 2.4324368270097581, .0015388810622164245
-1.8891758777537109, 2.9630365798386675, -.00039247197082143434
-1.8891758777537109, 3.2890824243987664, .00013889255449147219
-1.8891758777537109, 3.8869245750597696, -.00001775323901821256
-1.8891758777537109, 4.1962077112690155, 4.999830129735310e-06
-1.8891758777537109, 4.8969363973455646, -2.358057331656303e-07
-1.8891758777537109, 5.1900935913047821, 5.295162655832108e-08
-1.8891758777537109, 6.0874095469012914, -4.313957417077184e-10
-1.8891758777537109, 6.3639478888298378, 7.611782340948508e-11
-1.8760350201548459, -4.8594628283323127, 2.851011597436150e-07
-1.8760350201548459, -4.5127458633997826, -1.477926102571815e-06
-1.8760350201548459, -3.5818234835519269, .00005013786102832533
-1.8760350201548459, -3.2054290028564703, -.00018447030960124213
-1.8760350201548459, -2.4843258416389546, .0012640159697570252
-1.8760350201548459, -2.0768479786778302, -.0033014085518243766
-1.8760350201548459, -1.4659890943911582, .0089607222281784978
-1.8760350201548459, -1.0232556637891326, -.016144302760547641
-1.8760350201548459, -.48493570751549764, .022794211875405236
-1.8760350201548459, 0, -.026875426974906007
-1.8760350201548459, .48493570751549764, .022794211875405236
-1.8760350201548459, 1.0232556637891326, -.016144302760547641
-1.8760350201548459, 1.4659890943911582, .0089607222281784978
-1.8760350201548459, 2.0768479786778302, -.0033014085518243766
-1.8760350201548459, 2.4843258416389546, .0012640159697570252
-1.8760350201548459, 3.2054290028564703, -.00018447030960124213
-1.8760350201548459, 3.5818234835519269, .00005013786102832533
-1.8760350201548459, 4.5127458633997826, -1.477926102571815e-06
-1.8760350201548459, 4.8594628283323127, 2.851011597436150e-07
-1.8397799215086457, -1.7320508075688772, .0091494387467037832
-1.8397799215086457, -1.0000000000000002, -.027448316240111337
-1.8397799215086457, 0, .036597754986815112
-1.8397799215086457, 1.0000000000000002, -.027448316240111337
-1.8397799215086457, 1.7320508075688772, .0091494387467037832
-1.745247320814127, 0, .06150637206397605
-1.7320508075688772, -7.1394648491464796, 7.360981282264518e-13
-1.7320508075688772, -6.889122439895333, -4.307191532291529e-12
-1.7320508075688772, -6.0077459113595975, 9.842480798060922e-10
-1.7320508075688772, -5.7444600786594071, -4.680026863217635e-09
-1.7320508075688772, -5.0540726854427405, 1.702587329394971e-07
-1.7320508075688772, -4.778531589629984, -6.687799079966459e-07
-1.7320508075688772, -4.1880202316294044, 8.633160240193668e-06
-1.7320508075688772, -3.9000657171980104, -.0000280819052585566
-1.7320508075688772, -3.3747365357780907, .00017758079938194173
-1.7320508075688772, -3.0737971753281941, -.00047649101038077534
-1.7320508075688772, -2.5958336889112403, .0017527529586568935
-1.7320508075688772, -2.2810194402529889, -.0038477761709518618
-1.7320508075688772, -1.8397799215086457, .0091494387467037832
-1.7320508075688772, -1.5098833077967408, -.016234395193786361
-1.7320508075688772, -1.0983955180915013, .026780883982252125
-1.7320508075688772, -.7518426007038963, -.037784384744829827
-1.7320508075688772, -.36524575550769767, .045463872442381349
-1.7320508075688772, 0, -.049923061687767965
-1.7320508075688772, .36524575550769767, .045463872442381349
-1.7320508075688772, .7518426007038963, -.037784384744829827
-1.7320508075688772, 1.0983955180915013, .026780883982252125
-1.7320508075688772, 1.5098833077967408, -.016234395193786361
-1.7320508075688772, 1.8397799215086457, .0091494387467037832
-1.7320508075688772, 2.2810194402529889, -.0038477761709518618
-1.7320508075688772, 2.5958336889112403, .0017527529586568935
-1.7320508075688772, 3.0737971753281941, -.00047649101038077534
-1.7320508075688772, 3.3747365357780907, .00017758079938194173
-1.7320508075688772, 3.9000657171980104, -.0000280819052585566
-1.7320508075688772, 4.1880202316294044, 8.633160240193668e-06
-1.7320508075688772, 4.778531589629984, -6.687799079966459e-07
-1.7320508075688772, 5.0540726854427405, 1.702587329394971e-07
-1.7320508075688772, 5.7444600786594071, -4.680026863217635e-09
-1.7320508075688772, 6.0077459113595975, 9.842480798060922e-10
-1.7320508075688772, 6.889122439895333, -4.307191532291529e-12
-1.7320508075688772, 7.1394648491464796, 7.360981282264518e-13
-1.7254183795882394, -4.1445471861258945, 8.915575417884468e-06
-1.7254183795882394, -3.7504397177257425, -.0000434058728581241
-1.7254183795882394, -2.8024858612875416, .00076281031644840724
-1.7254183795882394, -2.3667594107345415, -.0024350093897842488
-1.7254183795882394, -1.6365190424351082, .009281761074757049
-1.7254183795882394, -1.1544053947399682, -.019010301328051229
-1.7254183795882394, -.53907981135137517, .02953099096360174
-1.7254183795882394, 0, -.036191522679062969
-1.7254183795882394, .53907981135137517, .02953099096360174
-1.7254183795882394, 1.1544053947399682, -.019010301328051229
-1.7254183795882394, 1.6365190424351082, .009281761074757049
-1.7254183795882394, 2.3667594107345415, -.0024350093897842488
-1.7254183795882394, 2.8024858612875416, .00076281031644840724
-1.7254183795882394, 3.7504397177257425, -.0000434058728581241
-1.7254183795882394, 4.1445471861258945, 8.915575417884468e-06
-1.6365190424351082, -5.8001672523865011, 3.192006134399168e-09
-1.6365190424351082, -5.500901704467748, -1.758513226331443e-08
-1.6365190424351082, -4.5913984489365207, 1.351377112518977e-06
-1.6365190424351082, -4.2718258479322815, -5.671111136673758e-06
-1.6365190424351082, -3.5634443802816347, .00007986808682176237
-1.6365190424351082, -3.2237098287700974, -.0002583241483500937
-1.6365190424351082, -2.6206899734322149, .0013799794268501821
-1.6365190424351082, -2.2594644510007993, -.0034136378022618266
-1.6365190424351082, -1.7254183795882394, .009281761074757049
-1.6365190424351082, -1.3403751971516167, -.017230403142155785
-1.6365190424351082, -.85667949351945005, .027888035387677281
-1.6365190424351082, -.44440300194413901, -.037711900041842869
-1.6365190424351082, 0, .039977910571309158
-1.6365190424351082, .44440300194413901, -.037711900041842869
-1.6365190424351082, .85667949351945005, .027888035387677281
-1.6365190424351082, 1.3403751971516167, -.017230403142155785
-1.6365190424351082, 1.7254183795882394, .009281761074757049
-1.6365190424351082, 2.2594644510007993, -.0034136378022618266
-1.6365190424351082, 2.6206899734322149, .0013799794268501821
-1.6365190424351082, 3.2237098287700974, -.0002583241483500937
-1.6365190424351082, 3.5634443802816347, .00007986808682176237
-1.6365190424351082, 4.2718258479322815, -5.671111136673758e-06
-1.6365190424351082, 4.5913984489365207, 1.351377112518977e-06
-1.6365190424351082, 5.500901704467748, -1.758513226331443e-08
-1.6365190424351082, 5.8001672523865011, 3.192006134399168e-09
-1.6067100690287301, -3.3242574335521193, .00022853260674917899
-1.6067100690287301, -2.8569700138728056, -.0010066129028340203
-1.6067100690287301, -1.8891758777537109, .0079238246487804906
-1.6067100690287301, -1.3556261799742659, -.019857539357129691
-1.6067100690287301, -.61670659019259422, .036556540444392563
-1.6067100690287301, 0, -.047689490879917057
-1.6067100690287301, .61670659019259422, .036556540444392563
-1.6067100690287301, 1.3556261799742659, -.019857539357129691
-1.6067100690287301, 1.8891758777537109, .0079238246487804906
-1.6067100690287301, 2.8569700138728056, -.0010066129028340203
-1.6067100690287301, 3.3242574335521193, .00022853260674917899
-1.5098833077967408, -2.3344142183389773, .0044686005369454322
-1.5098833077967408, -1.7320508075688772, -.016234395193786361
-1.5098833077967408, -.74196378430272591, .044234585044413618
-1.5098833077967408, 0, -.064937580775145415
-1.5098833077967408, .74196378430272591, .044234585044413618
-1.5098833077967408, 1.7320508075688772, -.016234395193786361
-1.5098833077967408, 2.3344142183389773, .0044686005369454322
-1.4659890943911582, -5.1880012243748714, 1.100378284627823e-07
-1.4659890943911582, -4.8594628283323127, -5.840231806713477e-07
-1.4659890943911582, -3.9361666071299775, .00002651035768244199
-1.4659890943911582, -3.5818234835519269, -.00010270625730233054
-1.4659890943911582, -2.8651231606436447, .0009104891287942074
-1.4659890943911582, -2.4843258416389546, -.0025893076960498344
-1.4659890943911582, -1.8760350201548459, .0089607222281784978
-1.4659890943911582, -1.4659890943911582, -.018355833773245296
-1.4659890943911582, -.92886899738106388, .032819612837975853
-1.4659890943911582, -.48493570751549764, -.046693419740355527
-1.4659890943911582, 0, .050048813799348418
-1.4659890943911582, .48493570751549764, -.046693419740355527
-1.4659890943911582, .92886899738106388, .032819612837975853
-1.4659890943911582, 1.4659890943911582, -.018355833773245296
-1.4659890943911582, 1.8760350201548459, .0089607222281784978
-1.4659890943911582, 2.4843258416389546, -.0025893076960498344
-1.4659890943911582, 2.8651231606436447, .0009104891287942074
-1.4659890943911582, 3.5818234835519269, -.00010270625730233054
-1.4659890943911582, 3.9361666071299775, .00002651035768244199
-1.4659890943911582, 4.8594628283323127, -5.840231806713477e-07
-1.4659890943911582, 5.1880012243748714, 1.100378284627823e-07
-1.4288766760783731, -1.0000000000000002, .051801828638072013
-1.4288766760783731, 0, -.10360365727614403
-1.4288766760783731, 1.0000000000000002, .051801828638072013
-1.3556261799742659, -6.6308781983931295, 3.326285856397453e-11
-1.3556261799742659, -6.3639478888298378, -1.907554421166457e-10
-1.3556261799742659, -5.4722257059493433, 2.908024718485507e-08
-1.3556261799742659, -5.1900935913047821, -1.326996816578624e-07
-1.3556261799742659, -4.492955302520012, 3.397768749199893e-06
-1.3556261799742659, -4.1962077112690155, -.00001252984865023004
-1.3556261799742659, -3.6008736241715487, .00011680858752995551
-1.3556261799742659, -3.2890824243987664, -.00034807236271327212
-1.3556261799742659, -2.7602450476307019, .0016138118679403567
-1.3556261799742659, -2.4324368270097581, -.0038565203816830116
-1.3556261799742659, -1.9519803457163336, .010500804975824739
-1.3556261799742659, -1.6067100690287301, -.019857539357129691
-1.3556261799742659, -1.1638291005549648, .035163140117535442
-1.3556261799742659, -.79912906832454811, -.051624278184920727
-1.3556261799742659, -.38676060450055738, .063639968571716624
-1.3556261799742659, 0, -.070677775954544636
-1.3556261799742659, .38676060450055738, .063639968571716624
-1.3556261799742659, .79912906832454811, -.051624278184920727
-1.3556261799742659, 1.1638291005549648, .035163140117535442
-1.3556261799742659, 1.6067100690287301, -.019857539357129691
-1.3556261799742659, 1.9519803457163336, .010500804975824739
-1.3556261799742659, 2.4324368270097581, -.0038565203816830116
-1.3556261799742659, 2.7602450476307019, .0016138118679403567
-1.3556261799742659, 3.2890824243987664, -.00034807236271327212
-1.3556261799742659, 3.6008736241715487, .00011680858752995551
-1.3556261799742659, 4.1962077112690155, -.00001252984865023004
-1.3556261799742659, 4.492955302520012, 3.397768749199893e-06
-1.3556261799742659, 5.1900935913047821, -1.326996816578624e-07
-1.3556261799742659, 5.4722257059493433, 2.908024718485507e-08
-1.3556261799742659, 6.3639478888298378, -1.907554421166457e-10
-1.3556261799742659, 6.6308781983931295, 3.326285856397453e-11
-1.3403751971516167, -4.5127458633997826, 3.284102729899939e-06
-1.3403751971516167, -4.1445471861258945, -.00001655062627201535
-1.3403751971516167, -3.2054290028564703, .0004099118665626844
-1.3403751971516167, -2.8024858612875416, -.0014160598584192188
-1.3403751971516167, -2.0768479786778302, .0073360669513140245
-1.3403751971516167, -1.6365190424351082, -.017230403142155785
-1.3403751971516167, -1.0232556637891326, .035874289435705593
-1.3403751971516167, -.53907981135137517, -.054820510395817978
-1.3403751971516167, 0, .059719943332705597
-1.3403751971516167, .53907981135137517, -.054820510395817978
-1.3403751971516167, 1.0232556637891326, .035874289435705593
-1.3403751971516167, 1.6365190424351082, -.017230403142155785
-1.3403751971516167, 2.0768479786778302, .0073360669513140245
-1.3403751971516167, 2.8024858612875416, -.0014160598584192188
-1.3403751971516167, 3.2054290028564703, .0004099118665626844
-1.3403751971516167, 4.1445471861258945, -.00001655062627201535
-1.3403751971516167, 4.5127458633997826, 3.284102729899939e-06
-1.2426889554854643, -3.7504397177257425, .00008447909645983359
-1.2426889554854643, -3.3242574335521193, -.00039380379658622778
-1.2426889554854643, -2.3667594107345415, .0047391603848759532
-1.2426889554854643, -1.8891758777537109, -.013654210112774205
-1.2426889554854643, -1.1544053947399682, .03699898133306076
-1.2426889554854643, -.61670659019259422, -.062993656011896423
-1.2426889554854643, 0, .070438098213720629
-1.2426889554854643, .61670659019259422, -.062993656011896423
-1.2426889554854643, 1.1544053947399682, .03699898133306076
-1.2426889554854643, 1.8891758777537109, -.013654210112774205
-1.2426889554854643, 2.3667594107345415, .0047391603848759532
-1.2426889554854643, 3.3242574335521193, -.00039380379658622778
-1.2426889554854643, 3.7504397177257425, .00008447909645983359
-1.1638291005549648, -2.8569700138728056, .0017824801910193979
-1.1638291005549648, -2.3344142183389773, -.0072639081925348452
-1.1638291005549648, -1.3556261799742659, .035163140117535442
-1.1638291005549648, -.74196378430272591, -.071905278182939805
-1.1638291005549648, 0, .084447132133839642
-1.1638291005549648, .74196378430272591, -.071905278182939805
-1.1638291005549648, 1.3556261799742659, .035163140117535442
-1.1638291005549648, 2.3344142183389773, -.0072639081925348452
-1.1638291005549648, 2.8569700138728056, .0017824801910193979
-1.1544053947399682, -6.0874095469012914, 1.168958355172319e-09
-1.1544053947399682, -5.8001672523865011, -6.537660037484265e-09
-1.1544053947399682, -4.8969363973455646, 6.389656997779448e-07
-1.1544053947399682, -4.5913984489365207, -2.767802996640912e-06
-1.1544053947399682, -3.8869245750597696, .0000481061704493396
-1.1544053947399682, -3.5634443802816347, -.00016358063784963371
-1.1544053947399682, -2.9630365798386675, .001063486133744685
-1.1544053947399682, -2.6206899734322149, -.0028263844026625152
-1.1544053947399682, -2.0883447457019444, .0092807869843093797
-1.1544053947399682, -1.7254183795882394, -.019010301328051229
-1.1544053947399682, -1.2426889554854643, .03699898133306076
-1.1544053947399682, -.85667949351945005, -.057118466193763553
-1.1544053947399682, -.41259045795460181, .072669588546283997
-1.1544053947399682, 0, -.081880164799045377
-1.1544053947399682, .41259045795460181, .072669588546283997
-1.1544053947399682, .85667949351945005, -.057118466193763553
-1.1544053947399682, 1.2426889554854643, .03699898133306076
-1.1544053947399682, 1.7254183795882394, -.019010301328051229
-1.1544053947399682, 2.0883447457019444, .0092807869843093797
-1.1544053947399682, 2.6206899734322149, -.0028263844026625152
-1.1544053947399682, 2.9630365798386675, .001063486133744685
-1.1544053947399682, 3.5634443802816347, -.00016358063784963371
-1.1544053947399682, 3.8869245750597696, .0000481061704493396
-1.1544053947399682, 4.5913984489365207, -2.767802996640912e-06
-1.1544053947399682, 4.8969363973455646, 6.389656997779448e-07
-1.1544053947399682, 5.8001672523865011, -6.537660037484265e-09
-1.1544053947399682, 6.0874095469012914, 1.168958355172319e-09
-1.0983955180915013, -1.7320508075688772, .026780883982252125
-1.0983955180915013, -1.0000000000000002, -.080342651946756341
-1.0983955180915013, 0, .10712353592900846
-1.0983955180915013, 1.0000000000000002, -.080342651946756341
-1.0983955180915013, 1.7320508075688772, .026780883982252125
-1.0429453488027509, 0, .16173933398400031
-1.0232556637891326, -5.500901704467748, 3.661284761445095e-08
-1.0232556637891326, -5.1880012243748714, -1.982523252679243e-07
-1.0232556637891326, -4.2718258479322815, .00001180744760645417
-1.0232556637891326, -3.9361666071299775, -.00004776302956583825
-1.0232556637891326, -3.2237098287700974, .00053783972375378469
-1.0232556637891326, -2.8651231606436447, -.0016404048447363757
-1.0232556637891326, -2.2594644510007993, .0071073108119793461
-1.0232556637891326, -1.8760350201548459, -.016144302760547641
-1.0232556637891326, -1.3403751971516167, .035874289435705593
-1.0232556637891326, -.92886899738106388, -.059130252299757331
-1.0232556637891326, -.44440300194413901, .078517467415576803
-1.0232556637891326, 0, -.090171660521074254
-1.0232556637891326, .44440300194413901, .078517467415576803
-1.0232556637891326, .92886899738106388, -.059130252299757331
-1.0232556637891326, 1.3403751971516167, .035874289435705593
-1.0232556637891326, 1.8760350201548459, -.016144302760547641
-1.0232556637891326, 2.2594644510007993, .0071073108119793461
-1.0232556637891326, 2.8651231606436447, -.0016404048447363757
-1.0232556637891326, 3.2237098287700974, .00053783972375378469
-1.0232556637891326, 3.9361666071299775, -.00004776302956583825
-1.0232556637891326, 4.2718258479322815, .00001180744760645417
-1.0232556637891326, 5.1880012243748714, -1.982523252679243e-07
-1.0232556637891326, 5.500901704467748, 3.661284761445095e-08
-1.0000000000000002, -7.3825790240304316, 3.741415027028616e-13
-1.0000000000000002, -7.1394648491464796, -2.208294384679355e-12
-1.0000000000000002, -6.2628911565132519, 6.101854242237395e-10
-1.0000000000000002, -6.0077459113595975, -2.952744239418275e-09
-1.0000000000000002, -5.3205363773360386, 1.266110016046435e-07
-1.0000000000000002, -5.0540726854427405, -5.107761988184910e-07
-1.0000000000000002, -4.4658726268310316, 7.675572977333376e-06
-1.0000000000000002, -4.1880202316294044, -.00002589948072058099
-1.0000000000000002, -3.6644165474506383, .00018925105470713385
-1.0000000000000002, -3.3747365357780907, -.00053274239814582501
-1.0000000000000002, -2.8980512765157536, .0022536177101710186
-1.0000000000000002, -2.5958336889112403, -.005258258875970678
-1.0000000000000002, -2.1555027613169351, .014333345515059253
-1.0000000000000002, -1.8397799215086457, -.027448316240111337
-1.0000000000000002, -1.4288766760783731, .051801828638072013
-1.0000000000000002, -1.0983955180915013, -.080342651946756341
-1.0000000000000002, -.71208504404237993, .11047085609957187
-1.0000000000000002, -.36524575550769767, -.136391617327144
-1.0000000000000002, 0, .14188659637576059
-1.0000000000000002, .36524575550769767, -.136391617327144
-1.0000000000000002, .71208504404237993, .11047085609957187
-1.0000000000000002, 1.0983955180915013, -.080342651946756341
-1.0000000000000002, 1.4288766760783731, .051801828638072013
-1.0000000000000002, 1.8397799215086457, -.027448316240111337
-1.0000000000000002, 2.1555027613169351, .014333345515059253
-1.0000000000000002, 2.5958336889112403, -.005258258875970678
-1.0000000000000002, 2.8980512765157536, .0022536177101710186
-1.0000000000000002, 3.3747365357780907, -.00053274239814582501
-1.0000000000000002, 3.6644165474506383, .00018925105470713385
-1.0000000000000002, 4.1880202316294044, -.00002589948072058099
-1.0000000000000002, 4.4658726268310316, 7.675572977333376e-06
-1.0000000000000002, 5.0540726854427405, -5.107761988184910e-07
-1.0000000000000002, 5.3205363773360386, 1.266110016046435e-07
-1.0000000000000002, 6.0077459113595975, -2.952744239418275e-09
-1.0000000000000002, 6.2628911565132519, 6.101854242237395e-10
-1.0000000000000002, 7.1394648491464796, -2.208294384679355e-12
-1.0000000000000002, 7.3825790240304316, 3.741415027028616e-13
-.92886899738106388, -4.8594628283323127, 1.044213785917722e-06
-.92886899738106388, -4.5127458633997826, -5.413063953373486e-06
-.92886899738106388, -3.5818234835519269, .00018363533045353278
-.92886899738106388, -3.2054290028564703, -.00067564243004606458
-.92886899738106388, -2.4843258416389546, .0046295949915721221
-.92886899738106388, -2.0768479786778302, -.01209176534343747
-.92886899738106388, -1.4659890943911582, .032819612837975853
-.92886899738106388, -1.0232556637891326, -.059130252299757331
-.92886899738106388, -.48493570751549764, .083486262563197619
-.92886899738106388, 0, -.098434153599581617
-.92886899738106388, .48493570751549764, .083486262563197619
-.92886899738106388, 1.0232556637891326, -.059130252299757331
-.92886899738106388, 1.4659890943911582, .032819612837975853
-.92886899738106388, 2.0768479786778302, -.01209176534343747
-.92886899738106388, 2.4843258416389546, .0046295949915721221
-.92886899738106388, 3.2054290028564703, -.00067564243004606458
-.92886899738106388, 3.5818234835519269, .00018363533045353278
-.92886899738106388, 4.5127458633997826, -5.413063953373486e-06
-.92886899738106388, 4.8594628283323127, 1.044213785917722e-06
-.85667949351945005, -4.1445471861258945, .00002678779175125188
-.85667949351945005, -3.7504397177257425, -.0001304175477639162
-.85667949351945005, -2.8024858612875416, .0022919444842265904
-.85667949351945005, -2.3667594107345415, -.0073162439201665264
-.85667949351945005, -1.6365190424351082, .027888035387677281
-.85667949351945005, -1.1544053947399682, -.057118466193763553
-.85667949351945005, -.53907981135137517, .088728993818412857
-.85667949351945005, 0, -.10874126764074797
-.85667949351945005, .53907981135137517, .088728993818412857
-.85667949351945005, 1.1544053947399682, -.057118466193763553
-.85667949351945005, 1.6365190424351082, .027888035387677281
-.85667949351945005, 2.3667594107345415, -.0073162439201665264
-.85667949351945005, 2.8024858612875416, .0022919444842265904
-.85667949351945005, 3.7504397177257425, -.0001304175477639162
-.85667949351945005, 4.1445471861258945, .00002678779175125188
-.79912906832454811, -3.3242574335521193, .00059412350407397245
-.79912906832454811, -2.8569700138728056, -.0026169236573501337
-.79912906832454811, -1.8891758777537109, .020599819574841007
-.79912906832454811, -1.3556261799742659, -.051624278184920727
-.79912906832454811, -.61670659019259422, .095037203725951161
-.79912906832454811, 0, -.12397988992519059
-.79912906832454811, .61670659019259422, .095037203725951161
-.79912906832454811, 1.3556261799742659, -.051624278184920727
-.79912906832454811, 1.8891758777537109, .020599819574841007
-.79912906832454811, 2.8569700138728056, -.0026169236573501337
-.79912906832454811, 3.3242574335521193, .00059412350407397245
-.7518426007038963, -2.3344142183389773, .010400345682327811
-.7518426007038963, -1.7320508075688772, -.037784384744829827
-.7518426007038963, -.74196378430272591, .10295280855216159
-.7518426007038963, 0, -.15113753897931922
-.7518426007038963, .74196378430272591, .10295280855216159
-.7518426007038963, 1.7320508075688772, -.037784384744829827
-.7518426007038963, 2.3344142183389773, .010400345682327811
-.74196378430272591, -6.889122439895333, 1.173599803771262e-11
-.74196378430272591, -6.6308781983931295, -6.801938308716690e-11
-.74196378430272591, -5.7444600786594071, 1.275187919352711e-08
-.74196378430272591, -5.4722257059493433, -5.946634050503606e-08
-.74196378430272591, -4.778531589629984, 1.822254624403599e-06
-.74196378430272591, -4.492955302520012, -6.948114027810601e-06
-.74196378430272591, -3.9000657171980104, .00007651602733215654
-.74196378430272591, -3.6008736241715487, -.00023886245518525709
-.74196378430272591, -3.0737971753281941, .0012983164367992134
-.74196378430272591, -2.7602450476307019, -.0033000918265918043
-.74196378430272591, -2.2810194402529889, .010484208388063845
-.74196378430272591, -1.9519803457163336, -.021473147745270205
-.74196378430272591, -1.5098833077967408, .044234585044413618
-.74196378430272591, -1.1638291005549648, -.071905278182939805
-.74196378430272591, -.7518426007038963, .10295280855216159
-.74196378430272591, -.38676060450055738, -.13013768475759105
-.74196378430272591, 0, .13602760629791164
-.74196378430272591, .38676060450055738, -.13013768475759105
-.74196378430272591, .7518426007038963, .10295280855216159
-.74196378430272591, 1.1638291005549648, -.071905278182939805
-.74196378430272591, 1.5098833077967408, .044234585044413618
-.74196378430272591, 1.9519803457163336, -.021473147745270205
-.74196378430272591, 2.2810194402529889, .010484208388063845
-.74196378430272591, 2.7602450476307019, -.0033000918265918043
-.74196378430272591, 3.0737971753281941, .0012983164367992134
-.74196378430272591, 3.6008736241715487, -.00023886245518525709
-.74196378430272591, 3.9000657171980104, .00007651602733215654
-.74196378430272591, 4.492955302520012, -6.948114027810601e-06
-.74196378430272591, 4.778531589629984, 1.822254624403599e-06
-.74196378430272591, 5.4722257059493433, -5.946634050503606e-08
-.74196378430272591, 5.7444600786594071, 1.275187919352711e-08
-.74196378430272591, 6.6308781983931295, -6.801938308716690e-11
-.74196378430272591, 6.889122439895333, 1.173599803771262e-11
-.71208504404237993, -1.0000000000000002, .11047085609957187
-.71208504404237993, 0, -.22094171219914374
-.71208504404237993, 1.0000000000000002, .11047085609957187
-.61670659019259422, -6.3639478888298378, 3.511693422489134e-10
-.61670659019259422, -6.0874095469012914, -1.990242916557228e-09
-.61670659019259422, -5.1900935913047821, 2.442921649172982e-07
-.61670659019259422, -4.8969363973455646, -1.087889018697012e-06
-.61670659019259422, -4.1962077112690155, .00002306670079844478
-.61670659019259422, -3.8869245750597696, -.00008190451315554275
-.61670659019259422, -3.2890824243987664, .00064078036942348776
-.61670659019259422, -2.9630365798386675, -.0018106682202807644
-.61670659019259422, -2.4324368270097581, .0070996230082757544
-.61670659019259422, -2.0883447457019444, -.015801264838793516
-.61670659019259422, -1.6067100690287301, .036556540444392563
-.61670659019259422, -1.2426889554854643, -.062993656011896423
-.61670659019259422, -.79912906832454811, .095037203725951161
-.61670659019259422, -.41259045795460181, -.12372565131462682
-.61670659019259422, 0, .13011355177167802
-.61670659019259422, .41259045795460181, -.12372565131462682
-.61670659019259422, .79912906832454811, .095037203725951161
-.61670659019259422, 1.2426889554854643, -.062993656011896423
-.61670659019259422, 1.6067100690287301, .036556540444392563
-.61670659019259422, 2.0883447457019444, -.015801264838793516
-.61670659019259422, 2.4324368270097581, .0070996230082757544
-.61670659019259422, 2.9630365798386675, -.0018106682202807644
-.61670659019259422, 3.2890824243987664, .00064078036942348776
-.61670659019259422, 3.8869245750597696, -.00008190451315554275
-.61670659019259422, 4.1962077112690155, .00002306670079844478
-.61670659019259422, 4.8969363973455646, -1.087889018697012e-06
-.61670659019259422, 5.1900935913047821, 2.442921649172982e-07
-.61670659019259422, 6.0874095469012914, -1.990242916557228e-09
-.61670659019259422, 6.3639478888298378, 3.511693422489134e-10
-.53907981135137517, -5.8001672523865011, 1.015573483862495e-08
-.53907981135137517, -5.500901704467748, -5.594912191545211e-08
-.53907981135137517, -4.5913984489365207, 4.299561794016627e-06
-.53907981135137517, -4.2718258479322815, -.00001804329268786716
-.53907981135137517, -3.5634443802816347, .00025410950909177116
-.53907981135137517, -3.2237098287700974, -.00082188800478323132
-.53907981135137517, -2.6206899734322149, .0043905633484899557
-.53907981135137517, -2.2594644510007993, -.010860881494328052
-.53907981135137517, -1.7254183795882394, .02953099096360174
-.53907981135137517, -1.3403751971516167, -.054820510395817978
-.53907981135137517, -.85667949351945005, .088728993818412857
-.53907981135137517, -.44440300194413901, -.11998474970279971
-.53907981135137517, 0, .12719432296482716
-.53907981135137517, .44440300194413901, -.11998474970279971
-.53907981135137517, .85667949351945005, .088728993818412857
-.53907981135137517, 1.3403751971516167, -.054820510395817978
-.53907981135137517, 1.7254183795882394, .02953099096360174
-.53907981135137517, 2.2594644510007993, -.010860881494328052
-.53907981135137517, 2.6206899734322149, .0043905633484899557
-.53907981135137517, 3.2237098287700974, -.00082188800478323132
-.53907981135137517, 3.5634443802816347, .00025410950909177116
-.53907981135137517, 4.2718258479322815, -.00001804329268786716
-.53907981135137517, 4.5913984489365207, 4.299561794016627e-06
-.53907981135137517, 5.500901704467748, -5.594912191545211e-08
-.53907981135137517, 5.8001672523865011, 1.015573483862495e-08
-.48493570751549764, -5.1880012243748714, 2.799133275666797e-07
-.48493570751549764, -4.8594628283323127, -1.485633387731611e-06
-.48493570751549764, -3.9361666071299775, .00006743683092932969
-.48493570751549764, -3.5818234835519269, -.000261263336845461
-.48493570751549764, -2.8651231606436447, .0023160947949847415
-.48493570751549764, -2.4843258416389546, -.0065866597280267369
-.48493570751549764, -1.8760350201548459, .022794211875405236
-.48493570751549764, -1.4659890943911582, -.046693419740355527
-.48493570751549764, -.92886899738106388, .083486262563197619
-.48493570751549764, -.48493570751549764, -.11877833902739428
-.48493570751549764, 0, .12731376297633051
-.48493570751549764, .48493570751549764, -.11877833902739428
-.48493570751549764, .92886899738106388, .083486262563197619
-.48493570751549764, 1.4659890943911582, -.046693419740355527
-.48493570751549764, 1.8760350201548459, .022794211875405236
-.48493570751549764, 2.4843258416389546, -.0065866597280267369
-.48493570751549764, 2.8651231606436447, .0023160947949847415
-.48493570751549764, 3.5818234835519269, -.000261263336845461
-.48493570751549764, 3.9361666071299775, .00006743683092932969
-.48493570751549764, 4.8594628283323127, -1.485633387731611e-06
